ply
format ascii 1.0
comment PCL generated
element vertex 1522
property float x
property float y
property float z
element camera 0
property float view_px
property float view_py
property float view_pz
property float x_axisx
property float x_axisy
property float x_axisz
property float y_axisx
property float y_axisy
property float y_axisz
property float z_axisx
property float z_axisy
property float z_axisz
property float focal
property float scalex
property float scaley
property float centerx
property float centery
property int viewportx
property int viewporty
property float k1
property float k2
end_header
28.190777 10.260609 -74.552002
27.815521 11.238186 -74.552101
27.615143 11.721941 -74.5522
27.406364 12.202099 -74.5522
28.095545 13.101157 -74.552299
27.86261 13.589517 -74.552299
27.621201 14.073709 -74.552299
28.254326 15.023085 -74.552299
27.987839 15.513894 -74.552399
28.578835 16.500006 -74.552399
27.137545 16.957407 -74.552498
27.676123 -17.973097 -75.233101
27.985594 -17.487326 -75.233002
28.286522 -16.996254 -75.233002
27.712809 -16.000006 -75.232903
27.987839 -15.513894 -75.232903
27.371378 -14.553614 -75.232903
28.512207 -14.527699 -75.232803
28.761404 -14.027888 -75.232803
28.31991 -12.608835 -75.232697
27.615143 -11.721941 -75.232597
27.815521 -11.238186 -75.232498
27.251085 -9.9185886 -75.232399
27.420034 -9.4414883 -75.2323
28.531698 -9.2705021 -75.2323
28.689142 -8.7711515 -75.232201
28.977777 -7.7645602 -75.232002
29.108873 -7.2576542 -75.231903
28.256731 -6.5235863 -75.231796
27.38813 -5.8215408 -75.231697
27.485561 -5.3426461 -75.231598
28.559425 -5.0357995 -75.2314
28.64296 -4.5366101 -75.2313
28.717775 -4.0360103 -75.231201
27.791292 -3.4123404 -75.231003
28.841135 -3.0313325 -75.230904
27.893452 -2.4403617 -75.230698
28.929358 -2.0229385 -75.230598
27.961626 -1.4654074 -75.2304
27.982943 -0.97718632 -75.230202
27.995735 -0.48866758 -75.230003
27.982943 0.97718632 -75.229401
27.961626 1.4654074 -75.229103
27.931793 1.9531821 -75.228798
27.893452 2.4403617 -75.2286
27.846613 2.9268038 -75.228302
27.791292 3.4123404 -75.227997
27.727507 3.8968375 -75.227699
28.64296 4.5366101 -75.227303
27.574617 4.8621511 -75.226898
27.485561 5.3426461 -75.226601
28.366278 6.0294528 -75.226196
27.28236 6.298635 -75.225899
28.138577 7.0157323 -75.225403
27.045925 7.246923 -75.224899
27.876587 7.9934921 -75.224297
28.689142 8.7711515 -75.223701
28.531698 9.2705021 -75.223198
28.365553 9.7670574 -75.222603
28.190777 10.260609 -75.222
27.815521 11.238186 -75.220596
27.406364 12.202099 -75.219101
27.621201 14.073709 -75.216698
27.371378 14.553614 -75.215797
27.113218 15.029085 -75.214798
27.712809 16.000006 -75.213898
28.286522 16.996254 -75.212997
27.985594 17.487326 -75.211899
27.676123 -17.973097 -75.897102
27.985594 -17.487326 -75.898003
27.429356 -16.481216 -75.898598
27.712809 -16.000006 -75.899399
27.987839 -15.513894 -75.9002
27.371378 -14.553614 -75.900902
27.621201 -14.073709 -75.901497
27.86261 -13.589517 -75.902298
28.095545 -13.101157 -75.902802
28.31991 -12.608835 -75.903397
28.535646 -12.112673 -75.9039
27.815521 -11.238186 -75.904404
27.251085 -9.9185886 -75.905502
28.365553 -9.7670574 -75.905998
27.580641 -8.9614859 -75.906403
27.732838 -8.4787798 -75.906898
27.876587 -7.9934921 -75.907303
28.011852 -7.5057416 -75.9076
27.168282 -6.7738104 -75.907997
28.256731 -6.5235863 -75.908302
28.366278 -6.0294528 -75.9086
28.46719 -5.5334549 -75.908997
28.559425 -5.0357995 -75.909302
28.64296 -4.5366101 -75.9095
27.727507 -3.8968375 -75.909798
27.791292 -3.4123404 -75.910103
28.841135 -3.0313325 -75.910301
27.893452 -2.4403617 -75.9105
27.931793 -1.9531821 -75.910698
27.961626 -1.4654074 -75.910896
28.982334 -1.0120858 -75.911102
28.995583 -0.50612003 -75.911301
29 5.2520451e-14 -75.9114
28.960257 1.5177433 -75.911903
28.929358 2.0229385 -75.912003
28.889647 2.5275176 -75.912102
28.841135 3.0313325 -75.912201
28.783838 3.5342095 -75.912399
28.717775 4.0360103 -75.912498
27.655272 4.3801751 -75.912598
27.574617 4.8621511 -75.912697
28.46719 5.5334549 -75.912804
28.366278 6.0294528 -75.912903
27.28236 6.298635 -75.912903
27.168282 6.7738104 -75.913002
27.045925 7.246923 -75.913101
28.689142 8.7711515 -75.9132
27.580641 8.9614859 -75.9133
28.190777 10.260609 -75.913399
28.535646 12.112673 -75.913597
27.406364 12.202099 -75.913597
27.189238 12.678539 -75.913696
27.621201 14.073709 -75.913696
28.254326 15.023085 -75.913803
27.987839 15.513894 -75.913803
27.137545 16.957407 -75.913902
28.514793 -18.517736 -76.694397
27.985594 -17.487326 -76.694397
27.429356 -16.481216 -76.694298
28.578835 -16.500006 -76.694298
27.987839 -15.513894 -76.694199
27.371378 -14.553614 -76.694199
27.621201 -14.073709 -76.694099
27.86261 -13.589517 -76.694099
27.406364 -12.202099 -76.694
27.615143 -11.721941 -76.693901
27.815521 -11.238186 -76.693802
28.190777 -10.260609 -76.693703
28.365553 -9.7670574 -76.693604
27.580641 -8.9614859 -76.693497
28.689142 -8.7711515 -76.693497
28.837849 -8.2691298 -76.693398
28.977777 -7.7645602 -76.693298
27.168282 -6.7738104 -76.693199
27.28236 -6.298635 -76.693001
27.38813 -5.8215408 -76.692902
28.46719 -5.5334549 -76.692802
28.559425 -5.0357995 -76.692703
27.655272 -4.3801751 -76.692497
28.717775 -4.0360103 -76.692398
28.783838 -3.5342095 -76.6922
27.846613 -2.9268038 -76.692101
27.893452 -2.4403617 -76.691902
27.931793 -1.9531821 -76.691704
28.960257 -1.5177433 -76.691498
27.982943 -0.97718632 -76.691299
28.995583 -0.50612003 -76.691101
29 5.0508141e-14 -76.690804
27.995735 0.48866758 -76.690598
27.982943 0.97718632 -76.690399
28.960257 1.5177433 -76.690102
28.929358 2.0229385 -76.689796
28.889647 2.5275176 -76.689499
28.841135 3.0313325 -76.689102
27.791292 3.4123404 -76.688797
28.717775 4.0360103 -76.6884
27.655272 4.3801751 -76.688004
28.559425 5.0357995 -76.687698
27.485561 5.3426461 -76.687202
28.366278 6.0294528 -76.686798
28.256731 6.5235863 -76.686203
28.138577 7.0157323 -76.685699
27.045925 7.246923 -76.685097
27.732838 8.4787798 -76.6838
27.580641 8.9614859 -76.683197
27.420034 9.4414883 -76.682602
27.251085 9.9185886 -76.681801
28.007414 10.751035 -76.681099
28.742704 11.612792 -76.680298
28.535646 12.112673 -76.679604
27.406364 12.202099 -76.678703
27.86261 13.589517 -76.677002
27.621201 14.073709 -76.676003
27.371378 14.553614 -76.675201
27.113218 15.029085 -76.674202
27.712809 16.000006 -76.673103
28.286522 16.996254 -76.671997
27.985594 17.487326 -76.670998
27.676123 17.973097 -76.669998
27.676123 -17.973097 -77.357903
28.833641 -18.017244 -77.358704
27.429356 -16.481216 -77.359596
27.712809 -16.000006 -77.360397
28.862457 -15.998704 -77.361198
27.621201 -14.073709 -77.362701
28.761404 -14.027888 -77.363403
28.31991 -12.608835 -77.364601
28.535646 -12.112673 -77.365097
28.742704 -11.612792 -77.3657
28.940994 -11.109403 -77.366203
27.251085 -9.9185886 -77.366699
28.365553 -9.7670574 -77.367104
27.580641 -8.9614859 -77.367699
27.732838 -8.4787798 -77.368103
28.837849 -8.2691298 -77.368599
28.977777 -7.7645602 -77.369003
28.256731 -6.5235863 -77.369698
28.366278 -6.0294528 -77.370003
27.485561 -5.3426461 -77.3703
27.574617 -4.8621511 -77.370598
27.655272 -4.3801751 -77.370903
27.727507 -3.8968375 -77.371201
28.783838 -3.5342095 -77.371399
27.846613 -2.9268038 -77.371696
28.889647 -2.5275176 -77.371902
27.931793 -1.9531821 -77.3722
28.960257 -1.5177433 -77.372299
27.982943 -0.97718632 -77.372498
28.995583 -0.50612003 -77.372704
28 5.0709399e-14 -77.372902
27.995735 0.48866758 -77.373001
27.982943 0.97718632 -77.373199
27.961626 1.4654074 -77.373299
28.929358 2.0229385 -77.373398
27.893452 2.4403617 -77.373596
28.841135 3.0313325 -77.373703
28.783838 3.5342095 -77.373802
28.717775 4.0360103 -77.373901
28.64296 4.5366101 -77.374001
28.559425 5.0357995 -77.3741
28.46719 5.5334549 -77.374199
28.366278 6.0294528 -77.374298
28.256731 6.5235863 -77.374397
28.138577 7.0157323 -77.374496
27.045925 7.246923 -77.374496
27.732838 8.4787798 -77.374702
27.580641 8.9614859 -77.374702
28.365553 9.7670574 -77.374802
28.190777 10.260609 -77.374901
28.007414 10.751035 -77.374901
28.742704 11.612792 -77.375
28.535646 12.112673 -77.375
27.406364 12.202099 -77.375
26.963816 13.151145 -77.375099
27.621201 14.073709 -77.375099
28.254326 15.023085 -77.375198
27.987839 15.513894 -77.375198
28.578835 16.500006 -77.375198
27.429356 16.481216 -77.375298
27.676123 17.973097 -77.375298
27.358238 18.453367 -77.375298
28.833641 -18.017244 -78.055901
29.14369 -17.511293 -78.055901
28.578835 -16.500006 -78.055801
27.987839 -15.513894 -78.055801
27.371378 -14.553614 -78.055801
28.512207 -14.527699 -78.055702
27.86261 -13.589517 -78.055702
27.406364 -12.202099 -78.055603
27.615143 -11.721941 -78.055496
27.815521 -11.238186 -78.055496
28.007414 -10.751035 -78.055397
27.420034 -9.4414883 -78.055199
27.580641 -8.9614859 -78.055099
27.732838 -8.4787798 -78.055099
27.876587 -7.9934921 -78.055
28.011852 -7.5057416 -78.054901
29.108873 -7.2576542 -78.054802
27.28236 -6.298635 -78.054703
27.38813 -5.8215408 -78.054604
27.485561 -5.3426461 -78.054497
27.574617 -4.8621511 -78.054398
28.64296 -4.5366101 -78.054298
28.717775 -4.0360103 -78.0541
28.783838 -3.5342095 -78.054001
28.841135 -3.0313325 -78.053802
28.889647 -2.5275176 -78.053596
27.931793 -1.9531821 -78.053497
28.960257 -1.5177433 -78.053299
27.982943 -0.97718632 -78.053101
28.995583 -0.50612003 -78.052902
27.995735 0.48866758 -78.052498
28.982334 1.0120858 -78.052299
28.960257 1.5177433 -78.052002
27.931793 1.9531821 -78.051804
28.889647 2.5275176 -78.051498
27.846613 2.9268038 -78.051201
27.791292 3.4123404 -78.050903
28.717775 4.0360103 -78.050598
28.64296 4.5366101 -78.050201
28.559425 5.0357995 -78.049797
27.485561 5.3426461 -78.049599
27.38813 5.8215408 -78.049103
28.256731 6.5235863 -78.048599
27.168282 6.7738104 -78.048103
27.876587 7.9934921 -78.047203
27.732838 8.4787798 -78.0467
27.580641 8.9614859 -78.046097
27.420034 9.4414883 -78.045601
28.190777 10.260609 -78.044998
27.073833 10.392667 -78.044296
27.815521 11.238186 -78.043503
28.535646 12.112673 -78.042801
27.406364 12.202099 -78.041901
27.189238 12.678539 -78.0411
28.512207 14.527699 -78.039497
27.371378 14.553614 -78.038597
27.113218 15.029085 -78.037598
27.712809 16.000006 -78.036697
28.286522 16.996254 -78.035797
27.137545 16.957407 -78.035004
27.676123 17.973097 -78.033798
27.358238 18.453367 -78.032898
27.676123 -17.973097 -78.817902
27.429356 -16.481216 -78.819702
28.578835 -16.500006 -78.820396
28.862457 -15.998704 -78.821297
27.371378 -14.553614 -78.822197
27.621201 -14.073709 -78.822998
27.86261 -13.589517 -78.823601
28.31991 -12.608835 -78.824997
27.615143 -11.721941 -78.8256
27.815521 -11.238186 -78.826202
28.007414 -10.751035 -78.826897
28.190777 -10.260609 -78.8274
27.420034 -9.4414883 -78.828003
28.531698 -9.2705021 -78.828499
28.689142 -8.7711515 -78.829002
28.837849 -8.2691298 -78.829498
28.011852 -7.5057416 -78.829903
28.256731 -6.5235863 -78.830597
27.38813 -5.8215408 -78.831001
28.46719 -5.5334549 -78.831299
27.574617 -4.8621511 -78.831596
28.64296 -4.5366101 -78.831902
28.717775 -4.0360103 -78.832298
28.783838 -3.5342095 -78.832497
28.841135 -3.0313325 -78.832703
28.889647 -2.5275176 -78.833
28.929358 -2.0229385 -78.833199
27.961626 -1.4654074 -78.833397
28.982334 -1.0120858 -78.833702
27.995735 -0.48866758 -78.8339
29 5.2520451e-14 -78.834099
27.995735 0.48866758 -78.834297
27.982943 0.97718632 -78.834396
28.960257 1.5177433 -78.834602
28.929358 2.0229385 -78.834702
27.893452 2.4403617 -78.8349
28.841135 3.0313325 -78.834999
28.783838 3.5342095 -78.835098
27.727507 3.8968375 -78.835297
27.655272 4.3801751 -78.835403
27.574617 4.8621511 -78.835503
28.46719 5.5334549 -78.835602
28.366278 6.0294528 -78.835701
27.28236 6.298635 -78.8358
27.168282 6.7738104 -78.8358
28.011852 7.5057416 -78.835899
27.876587 7.9934921 -78.835999
27.732838 8.4787798 -78.836098
27.580641 8.9614859 -78.836098
28.365553 9.7670574 -78.836197
27.251085 9.9185886 -78.836304
28.007414 10.751035 -78.836304
27.815521 11.238186 -78.836403
28.535646 12.112673 -78.836403
28.31991 12.608835 -78.836502
28.095545 13.101157 -78.836502
26.963816 13.151145 -78.836502
27.621201 14.073709 -78.836601
28.254326 15.023085 -78.836601
27.987839 15.513894 -78.8367
27.712809 16.000006 -78.8367
27.429356 16.481216 -78.8367
27.137545 16.957407 -78.8367
27.358238 18.453367 -78.8368
27.676123 -17.973097 -79.517303
28.833641 -18.017244 -79.517303
28.286522 -16.996254 -79.517197
27.712809 -16.000006 -79.517197
27.987839 -15.513894 -79.517197
28.254326 -15.023085 -79.517097
27.621201 -14.073709 -79.517097
28.761404 -14.027888 -79.516998
28.095545 -13.101157 -79.516998
27.406364 -12.202099 -79.516899
27.615143 -11.721941 -79.516899
27.815521 -11.238186 -79.5168
28.007414 -10.751035 -79.5168
29.13047 -10.602629 -79.516701
27.420034 -9.4414883 -79.516602
28.531698 -9.2705021 -79.516502
27.732838 -8.4787798 -79.516403
28.837849 -8.2691298 -79.516403
28.011852 -7.5057416 -79.516296
28.138577 -7.0157323 -79.516197
28.256731 -6.5235863 -79.516098
28.366278 -6.0294528 -79.515999
27.485561 -5.3426461 -79.5159
28.559425 -5.0357995 -79.5158
28.64296 -4.5366101 -79.515602
28.717775 -4.0360103 -79.515503
27.791292 -3.4123404 -79.515404
28.841135 -3.0313325 -79.515198
27.893452 -2.4403617 -79.515099
28.929358 -2.0229385 -79.5149
28.960257 -1.5177433 -79.514702
27.982943 -0.97718632 -79.514503
28.995583 -0.50612003 -79.514397
28 4.8766479e-14 -79.514099
27.995735 0.48866758 -79.513901
28.982334 1.0120858 -79.513702
28.960257 1.5177433 -79.513496
27.931793 1.9531821 -79.513199
28.889647 2.5275176 -79.512901
27.846613 2.9268038 -79.512604
27.791292 3.4123404 -79.512299
27.727507 3.8968375 -79.512001
27.655272 4.3801751 -79.511703
27.574617 4.8621511 -79.511299
27.485561 5.3426461 -79.510803
28.366278 6.0294528 -79.510498
28.256731 6.5235863 -79.510002
27.168282 6.7738104 -79.509598
27.045925 7.246923 -79.508904
28.837849 8.2691298 -79.508499
27.732838 8.4787798 -79.508003
28.531698 9.2705021 -79.507301
28.365553 9.7670574 -79.506699
28.190777 10.260609 -79.505997
27.073833 10.392667 -79.505302
28.742704 11.612792 -79.504501
28.535646 12.112673 -79.503799
27.406364 12.202099 -79.503098
27.189238 12.678539 -79.502296
26.963816 13.151145 -79.501503
28.512207 14.527699 -79.500603
28.254326 15.023085 -79.499702
27.987839 15.513894 -79.498802
27.712809 16.000006 -79.497803
27.429356 16.481216 -79.496696
27.985594 17.487326 -79.495796
27.676123 -17.973097 -80.278801
28.286522 -16.996254 -80.280701
28.578835 -16.500006 -80.281601
27.987839 -15.513894 -80.282303
27.621201 -14.073709 -80.284103
28.761404 -14.027888 -80.284798
29.001854 -13.523775 -80.285301
28.31991 -12.608835 -80.286102
27.615143 -11.721941 -80.286903
27.815521 -11.238186 -80.287498
28.007414 -10.751035 -80.288101
27.420034 -9.4414883 -80.289299
28.531698 -9.2705021 -80.289703
28.689142 -8.7711515 -80.290298
28.837849 -8.2691298 -80.290802
28.977777 -7.7645602 -80.291199
28.256731 -6.5235863 -80.292099
27.38813 -5.8215408 -80.292503
28.46719 -5.5334549 -80.292801
28.559425 -5.0357995 -80.293098
28.64296 -4.5366101 -80.293503
27.727507 -3.8968375 -80.2938
27.791292 -3.4123404 -80.294098
28.841135 -3.0313325 -80.294296
27.893452 -2.4403617 -80.294601
27.931793 -1.9531821 -80.294701
28.960257 -1.5177433 -80.294998
27.982943 -0.97718632 -80.295197
27.995735 -0.48866758 -80.295403
28 5.0709399e-14 -80.295502
27.982943 0.97718632 -80.295898
27.961626 1.4654074 -80.295998
28.929358 2.0229385 -80.296204
28.889647 2.5275176 -80.296303
28.841135 3.0313325 -80.296402
27.791292 3.4123404 -80.2966
27.727507 3.8968375 -80.2967
27.655272 4.3801751 -80.296799
27.574617 4.8621511 -80.296898
28.46719 5.5334549 -80.296997
27.38813 5.8215408 -80.297096
27.28236 6.298635 -80.297203
27.168282 6.7738104 -80.297203
28.011852 7.5057416 -80.297302
27.876587 7.9934921 -80.297401
27.732838 8.4787798 -80.297501
27.580641 8.9614859 -80.297501
28.365553 9.7670574 -80.2976
28.190777 10.260609 -80.2976
27.073833 10.392667 -80.297699
27.815521 11.238186 -80.297798
27.615143 11.721941 -80.297798
28.31991 12.608835 -80.297897
27.189238 12.678539 -80.297897
27.86261 13.589517 -80.297897
27.621201 14.073709 -80.297997
28.254326 15.023085 -80.297997
27.987839 15.513894 -80.298103
28.578835 16.500006 -80.298103
27.429356 16.481216 -80.298103
27.137545 16.957407 -80.298103
27.358238 18.453367 -80.298203
28.578835 -16.500006 -80.9785
28.254326 -15.023085 -80.9785
27.621201 -14.073709 -80.978401
27.86261 -13.589517 -80.978302
28.31991 -12.608835 -80.978302
27.615143 -11.721941 -80.978203
28.742704 -11.612792 -80.978104
28.007414 -10.751035 -80.978104
29.13047 -10.602629 -80.977997
28.365553 -9.7670574 -80.977898
28.531698 -9.2705021 -80.977798
28.689142 -8.7711515 -80.977798
27.876587 -7.9934921 -80.977699
28.977777 -7.7645602 -80.9776
29.108873 -7.2576542 -80.977501
27.28236 -6.298635 -80.977402
27.38813 -5.8215408 -80.977303
27.485561 -5.3426461 -80.977203
28.559425 -5.0357995 -80.976997
27.655272 -4.3801751 -80.976898
28.717775 -4.0360103 -80.976799
27.791292 -3.4123404 -80.976601
27.846613 -2.9268038 -80.976402
28.889647 -2.5275176 -80.976303
28.929358 -2.0229385 -80.976097
27.961626 -1.4654074 -80.975899
27.982943 -0.97718632 -80.9757
28.995583 -0.50612003 -80.975502
29 5.0508141e-14 -80.975304
28.995583 0.50612003 -80.975098
27.982943 0.97718632 -80.9748
28.960257 1.5177433 -80.974602
28.929358 2.0229385 -80.974297
28.889647 2.5275176 -80.974098
27.846613 2.9268038 -80.973801
28.783838 3.5342095 -80.973396
27.727507 3.8968375 -80.973099
28.64296 4.5366101 -80.972702
28.559425 5.0357995 -80.972298
27.485561 5.3426461 -80.971901
28.366278 6.0294528 -80.971497
27.28236 6.298635 -80.971001
28.138577 7.0157323 -80.970596
28.011852 7.5057416 -80.9701
27.876587 7.9934921 -80.969597
28.689142 8.7711515 -80.969002
27.580641 8.9614859 -80.9683
27.420034 9.4414883 -80.967796
28.190777 10.260609 -80.967003
28.742704 11.612792 -80.965698
27.615143 11.721941 -80.964996
28.31991 12.608835 -80.964104
27.86261 13.589517 -80.962601
28.512207 14.527699 -80.961601
27.371378 14.553614 -80.960701
27.987839 15.513894 -80.9599
28.578835 16.500006 -80.9589
28.286522 16.996254 -80.957802
27.985594 17.487326 -80.956902
27.676123 17.973097 -80.955704
27.358238 18.453367 -80.954697
27.676123 -17.973097 -81.6408
28.833641 -18.017244 -81.6418
27.987839 -15.513894 -81.644203
27.621201 -14.073709 -81.645897
28.761404 -14.027888 -81.646698
28.095545 -13.101157 -81.6474
28.31991 -12.608835 -81.648003
27.615143 -11.721941 -81.648598
28.742704 -11.612792 -81.6493
28.940994 -11.109403 -81.649803
29.13047 -10.602629 -81.650299
28.365553 -9.7670574 -81.650902
27.580641 -8.9614859 -81.651497
27.732838 -8.4787798 -81.651802
28.837849 -8.2691298 -81.652298
28.977777 -7.7645602 -81.652702
28.138577 -7.0157323 -81.653099
28.256731 -6.5235863 -81.653503
28.366278 -6.0294528 -81.653801
27.485561 -5.3426461 -81.654099
27.574617 -4.8621511 -81.654503
27.655272 -4.3801751 -81.654701
28.717775 -4.0360103 -81.654999
28.783838 -3.5342095 -81.655296
27.846613 -2.9268038 -81.655502
27.893452 -2.4403617 -81.6558
27.931793 -1.9531821 -81.655998
27.961626 -1.4654074 -81.656197
28.982334 -1.0120858 -81.656403
28.995583 -0.50612003 -81.656601
29 5.2520451e-14 -81.656799
27.995735 0.48866758 -81.656898
27.982943 0.97718632 -81.657097
28.960257 1.5177433 -81.657204
27.931793 1.9531821 -81.657402
28.889647 2.5275176 -81.657501
28.841135 3.0313325 -81.6576
28.783838 3.5342095 -81.657799
27.727507 3.8968375 -81.657898
27.655272 4.3801751 -81.657997
28.559425 5.0357995 -81.658096
27.485561 5.3426461 -81.658203
27.38813 5.8215408 -81.658302
27.28236 6.298635 -81.658401
27.168282 6.7738104 -81.658501
28.011852 7.5057416 -81.6586
27.876587 7.9934921 -81.658699
27.732838 8.4787798 -81.658699
27.580641 8.9614859 -81.658798
27.420034 9.4414883 -81.658897
27.251085 9.9185886 -81.658897
27.815521 11.238186 -81.659103
28.535646 12.112673 -81.659103
27.406364 12.202099 -81.659203
28.095545 13.101157 -81.659203
28.761404 14.027888 -81.659302
27.621201 14.073709 -81.659302
28.254326 15.023085 -81.659302
27.113218 15.029085 -81.659401
28.578835 16.500006 -81.659401
28.286522 16.996254 -81.659401
27.137545 16.957407 -81.6595
28.514793 18.517736 -81.6595
27.712809 -16.000006 -82.439903
27.987839 -15.513894 -82.439903
27.621201 -14.073709 -82.439796
28.761404 -14.027888 -82.439796
28.095545 -13.101157 -82.439697
28.31991 -12.608835 -82.439598
27.615143 -11.721941 -82.439598
28.742704 -11.612792 -82.439499
28.940994 -11.109403 -82.4394
29.13047 -10.602629 -82.4394
28.365553 -9.7670574 -82.439301
27.580641 -8.9614859 -82.439201
27.732838 -8.4787798 -82.439102
28.837849 -8.2691298 -82.439003
28.011852 -7.5057416 -82.438904
29.108873 -7.2576542 -82.438797
27.28236 -6.298635 -82.438698
27.38813 -5.8215408 -82.438599
28.46719 -5.5334549 -82.4384
28.559425 -5.0357995 -82.438301
28.64296 -4.5366101 -82.438202
28.717775 -4.0360103 -82.438004
28.783838 -3.5342095 -82.437897
27.846613 -2.9268038 -82.437698
27.893452 -2.4403617 -82.4375
28.929358 -2.0229385 -82.437401
27.961626 -1.4654074 -82.437202
28.982334 -1.0120858 -82.436996
28.995583 -0.50612003 -82.436699
27.995735 0.48866758 -82.436203
28.982334 1.0120858 -82.435997
27.961626 1.4654074 -82.435699
27.931793 1.9531821 -82.435303
27.893452 2.4403617 -82.434998
28.841135 3.0313325 -82.4347
27.791292 3.4123404 -82.434303
28.717775 4.0360103 -82.433899
27.655272 4.3801751 -82.433502
27.574617 4.8621511 -82.433098
27.485561 5.3426461 -82.432701
28.366278 6.0294528 -82.432198
28.256731 6.5235863 -82.431702
28.011852 7.5057416 -82.430603
28.837849 8.2691298 -82.430099
28.689142 8.7711515 -82.429604
27.580641 8.9614859 -82.428802
27.420034 9.4414883 -82.428101
27.251085 9.9185886 -82.427299
27.073833 10.392667 -82.426598
27.815521 11.238186 -82.425797
28.535646 12.112673 -82.425102
27.406364 12.202099 -82.424103
28.095545 13.101157 -82.423203
28.761404 14.027888 -82.422302
28.512207 14.527699 -82.421097
28.254326 15.023085 -82.420097
27.113218 15.029085 -82.418999
27.712809 16.000006 -82.4179
27.429356 16.481216 -82.416901
27.137545 16.957407 -82.415604
28.514793 18.517736 -82.414299
27.358238 18.453367 -82.4132
27.985594 -17.487326 -83.105202
28.286522 -16.996254 -83.106003
27.712809 -16.000006 -83.106598
27.987839 -15.513894 -83.1073
28.254326 -15.023085 -83.108101
27.621201 -14.073709 -83.108902
28.761404 -14.027888 -83.109497
28.095545 -13.101157 -83.110001
28.31991 -12.608835 -83.110497
28.535646 -12.112673 -83.111198
28.742704 -11.612792 -83.111702
28.007414 -10.751035 -83.112297
28.190777 -10.260609 -83.1129
27.420034 -9.4414883 -83.113297
28.531698 -9.2705021 -83.113701
27.732838 -8.4787798 -83.114197
27.876587 -7.9934921 -83.114601
28.011852 -7.5057416 -83.114998
27.28236 -6.298635 -83.115799
27.38813 -5.8215408 -83.116096
27.485561 -5.3426461 -83.116402
27.574617 -4.8621511 -83.116699
27.655272 -4.3801751 -83.116997
27.727507 -3.8968375 -83.117302
27.791292 -3.4123404 -83.1175
28.841135 -3.0313325 -83.117699
27.893452 -2.4403617 -83.117897
28.929358 -2.0229385 -83.118103
27.961626 -1.4654074 -83.118301
28.982334 -1.0120858 -83.1185
28.995583 -0.50612003 -83.118698
29 5.2520451e-14 -83.118797
28.995583 0.50612003 -83.118896
27.982943 0.97718632 -83.119102
27.961626 1.4654074 -83.119202
27.931793 1.9531821 -83.119301
28.889647 2.5275176 -83.1194
28.841135 3.0313325 -83.119598
28.783838 3.5342095 -83.119698
27.727507 3.8968375 -83.119797
28.64296 4.5366101 -83.119904
28.559425 5.0357995 -83.120003
28.46719 5.5334549 -83.120102
27.38813 5.8215408 -83.120102
28.256731 6.5235863 -83.120201
28.138577 7.0157323 -83.1203
28.011852 7.5057416 -83.120399
28.837849 8.2691298 -83.120399
27.732838 8.4787798 -83.120499
27.580641 8.9614859 -83.120499
28.365553 9.7670574 -83.120598
27.251085 9.9185886 -83.120697
28.007414 10.751035 -83.120697
27.815521 11.238186 -83.120697
27.615143 11.721941 -83.120796
27.406364 12.202099 -83.120796
27.189238 12.678539 -83.120903
27.86261 13.589517 -83.120903
27.621201 14.073709 -83.120903
27.371378 14.553614 -83.121002
27.987839 15.513894 -83.121002
28.578835 16.500006 -83.121002
28.286522 16.996254 -83.121002
27.137545 16.957407 -83.121101
27.676123 17.973097 -83.121101
27.358238 18.453367 -83.121101
28.833641 -18.017244 -83.801498
29.14369 -17.511293 -83.801399
28.578835 -16.500006 -83.801399
27.987839 -15.513894 -83.801399
28.512207 -14.527699 -83.8013
27.86261 -13.589517 -83.8013
28.095545 -13.101157 -83.801201
29.233456 -13.015572 -83.801201
27.615143 -11.721941 -83.801102
27.815521 -11.238186 -83.801003
28.940994 -11.109403 -83.801003
28.365553 -9.7670574 -83.800797
28.531698 -9.2705021 -83.800797
27.732838 -8.4787798 -83.800697
27.876587 -7.9934921 -83.800598
28.977777 -7.7645602 -83.800499
29.108873 -7.2576542 -83.8004
27.28236 -6.298635 -83.800301
27.38813 -5.8215408 -83.800301
28.46719 -5.5334549 -83.800102
27.574617 -4.8621511 -83.800003
27.655272 -4.3801751 -83.799896
28.717775 -4.0360103 -83.799797
28.783838 -3.5342095 -83.799599
27.846613 -2.9268038 -83.7995
27.893452 -2.4403617 -83.799301
28.929358 -2.0229385 -83.799202
28.960257 -1.5177433 -83.799004
28.982334 -1.0120858 -83.798798
28.995583 -0.50612003 -83.798599
28 4.8766479e-14 -83.798401
27.995735 0.48866758 -83.798203
27.982943 0.97718632 -83.797997
28.960257 1.5177433 -83.797699
27.931793 1.9531821 -83.797501
27.893452 2.4403617 -83.797203
27.846613 2.9268038 -83.796898
28.783838 3.5342095 -83.7967
28.717775 4.0360103 -83.796303
28.64296 4.5366101 -83.795998
27.574617 4.8621511 -83.795601
28.46719 5.5334549 -83.795197
28.366278 6.0294528 -83.794899
27.28236 6.298635 -83.794403
27.168282 6.7738104 -83.793999
28.011852 7.5057416 -83.793602
27.876587 7.9934921 -83.792999
27.732838 8.4787798 -83.792503
28.531698 9.2705021 -83.791901
27.420034 9.4414883 -83.791298
28.190777 10.260609 -83.790703
28.007414 10.751035 -83.789902
28.742704 11.612792 -83.789299
28.535646 12.112673 -83.788498
28.31991 12.608835 -83.787804
28.512207 14.527699 -83.7854
27.371378 14.553614 -83.7845
27.987839 15.513894 -83.7836
27.712809 16.000006 -83.7826
27.429356 16.481216 -83.781799
27.985594 17.487326 -83.780701
27.676123 17.973097 -83.779602
27.358238 18.453367 -83.778702
27.985594 -17.487326 -84.4646
28.578835 -16.500006 -84.466202
27.987839 -15.513894 -84.466904
27.621201 -14.073709 -84.468399
28.761404 -14.027888 -84.469299
29.001854 -13.523775 -84.470001
27.406364 -12.202099 -84.470497
27.615143 -11.721941 -84.4711
27.815521 -11.238186 -84.471703
28.007414 -10.751035 -84.472198
28.190777 -10.260609 -84.4729
27.420034 -9.4414883 -84.473503
27.580641 -8.9614859 -84.473801
27.732838 -8.4787798 -84.474403
27.876587 -7.9934921 -84.4748
28.977777 -7.7645602 -84.475304
28.138577 -7.0157323 -84.4757
27.28236 -6.298635 -84.476097
27.38813 -5.8215408 -84.476402
28.46719 -5.5334549 -84.4767
28.559425 -5.0357995 -84.477097
27.655272 -4.3801751 -84.477402
28.717775 -4.0360103 -84.477798
28.783838 -3.5342095 -84.477997
28.841135 -3.0313325 -84.478302
28.889647 -2.5275176 -84.4785
27.931793 -1.9531821 -84.478798
27.961626 -1.4654074 -84.478996
27.982943 -0.97718632 -84.479301
28.995583 -0.50612003 -84.4795
29 5.2520451e-14 -84.479599
27.995735 0.48866758 -84.479797
28.982334 1.0120858 -84.480003
28.929358 2.0229385 -84.480301
28.841135 3.0313325 -84.480499
27.791292 3.4123404 -84.480698
27.727507 3.8968375 -84.480797
28.64296 4.5366101 -84.480904
27.574617 4.8621511 -84.481003
28.46719 5.5334549 -84.481102
27.38813 5.8215408 -84.481201
28.256731 6.5235863 -84.4813
28.138577 7.0157323 -84.4814
28.837849 8.2691298 -84.481499
27.732838 8.4787798 -84.481598
27.580641 8.9614859 -84.481697
28.365553 9.7670574 -84.481697
27.251085 9.9185886 -84.481796
28.007414 10.751035 -84.481796
27.815521 11.238186 -84.481903
28.535646 12.112673 -84.482002
27.406364 12.202099 -84.482002
27.86261 13.589517 -84.482101
27.621201 14.073709 -84.482101
28.254326 15.023085 -84.482201
27.987839 15.513894 -84.482201
27.712809 16.000006 -84.4823
27.429356 16.481216 -84.4823
27.985594 17.487326 -84.4823
27.358238 18.453367 -84.482399
28.833641 -18.017244 -85.163002
29.14369 -17.511293 -85.163002
27.712809 -16.000006 -85.162903
27.987839 -15.513894 -85.162903
28.254326 -15.023085 -85.162903
28.512207 -14.527699 -85.162804
27.86261 -13.589517 -85.162804
27.406364 -12.202099 -85.162697
27.615143 -11.721941 -85.162598
27.815521 -11.238186 -85.162598
28.007414 -10.751035 -85.162498
27.420034 -9.4414883 -85.162399
28.531698 -9.2705021 -85.1623
28.689142 -8.7711515 -85.162201
27.876587 -7.9934921 -85.162201
28.011852 -7.5057416 -85.162102
29.108873 -7.2576542 -85.162003
28.256731 -6.5235863 -85.161903
27.38813 -5.8215408 -85.161797
28.46719 -5.5334549 -85.161697
27.574617 -4.8621511 -85.161598
28.64296 -4.5366101 -85.161499
27.727507 -3.8968375 -85.1614
27.791292 -3.4123404 -85.161301
28.841135 -3.0313325 -85.161102
28.889647 -2.5275176 -85.161003
27.931793 -1.9531821 -85.160896
28.960257 -1.5177433 -85.160698
27.982943 -0.97718632 -85.160599
28.995583 -0.50612003 -85.1604
29 5.0508141e-14 -85.160202
27.995735 0.48866758 -85.160103
27.982943 0.97718632 -85.159798
28.960257 1.5177433 -85.159599
27.931793 1.9531821 -85.159401
28.889647 2.5275176 -85.159103
28.841135 3.0313325 -85.158897
27.791292 3.4123404 -85.1586
27.727507 3.8968375 -85.158302
28.64296 4.5366101 -85.158096
28.559425 5.0357995 -85.1576
27.485561 5.3426461 -85.157303
28.366278 6.0294528 -85.156898
27.28236 6.298635 -85.156403
28.138577 7.0157323 -85.155998
28.011852 7.5057416 -85.155602
28.837849 8.2691298 -85.155098
28.689142 8.7711515 -85.154602
28.531698 9.2705021 -85.154099
27.420034 9.4414883 -85.153503
28.190777 10.260609 -85.152901
27.073833 10.392667 -85.152397
28.742704 11.612792 -85.151901
28.535646 12.112673 -85.151199
27.406364 12.202099 -85.150497
27.189238 12.678539 -85.149902
28.761404 14.027888 -85.149101
28.512207 14.527699 -85.148201
27.371378 14.553614 -85.1474
27.987839 15.513894 -85.146599
27.712809 16.000006 -85.145699
27.429356 16.481216 -85.144897
27.985594 17.487326 -85.143997
27.676123 17.973097 -85.142899
28.833641 -18.017244 -85.827904
27.712809 -16.000006 -85.8293
27.987839 -15.513894 -85.830101
29.137274 -15.492556 -85.830803
27.621201 -14.073709 -85.831398
28.761404 -14.027888 -85.832199
28.31991 -12.608835 -85.833504
27.615143 -11.721941 -85.834099
27.815521 -11.238186 -85.834602
28.940994 -11.109403 -85.835098
28.190777 -10.260609 -85.835701
27.420034 -9.4414883 -85.836098
28.531698 -9.2705021 -85.836601
28.689142 -8.7711515 -85.836998
28.837849 -8.2691298 -85.837303
28.011852 -7.5057416 -85.8377
29.108873 -7.2576542 -85.838097
27.28236 -6.298635 -85.838402
27.38813 -5.8215408 -85.838799
27.485561 -5.3426461 -85.838997
27.574617 -4.8621511 -85.839401
28.64296 -4.5366101 -85.8396
28.717775 -4.0360103 -85.839798
28.783838 -3.5342095 -85.840103
27.846613 -2.9268038 -85.840302
27.893452 -2.4403617 -85.840599
27.931793 -1.9531821 -85.840797
28.960257 -1.5177433 -85.841003
27.982943 -0.97718632 -85.841103
28.995583 -0.50612003 -85.841301
28 5.0709399e-14 -85.8414
27.995735 0.48866758 -85.841599
27.982943 0.97718632 -85.841698
27.961626 1.4654074 -85.841904
27.931793 1.9531821 -85.842003
27.893452 2.4403617 -85.842102
28.841135 3.0313325 -85.8423
27.791292 3.4123404 -85.8424
27.727507 3.8968375 -85.842499
27.655272 4.3801751 -85.842598
28.559425 5.0357995 -85.842697
27.485561 5.3426461 -85.842796
27.38813 5.8215408 -85.842796
27.28236 6.298635 -85.842903
28.138577 7.0157323 -85.843002
27.876587 7.9934921 -85.843102
28.689142 8.7711515 -85.843201
28.531698 9.2705021 -85.8433
27.420034 9.4414883 -85.8433
28.190777 10.260609 -85.843399
27.615143 11.721941 -85.843498
27.406364 12.202099 -85.843498
28.095545 13.101157 -85.843597
27.86261 13.589517 -85.843597
28.512207 14.527699 -85.843697
27.371378 14.553614 -85.843697
27.113218 15.029085 -85.843697
27.712809 16.000006 -85.843697
28.286522 16.996254 -85.843803
27.137545 16.957407 -85.843803
27.676123 17.973097 -85.843803
27.358238 18.453367 -85.843803
28.833641 -18.017244 -86.5243
27.712809 -16.000006 -86.5243
27.987839 -15.513894 -86.5242
28.254326 -15.023085 -86.5242
27.621201 -14.073709 -86.5242
27.86261 -13.589517 -86.524101
28.095545 -13.101157 -86.524101
29.233456 -13.015572 -86.524002
28.535646 -12.112673 -86.524002
27.815521 -11.238186 -86.523903
28.007414 -10.751035 -86.523903
27.420034 -9.4414883 -86.523697
28.531698 -9.2705021 -86.523697
27.732838 -8.4787798 -86.523598
28.837849 -8.2691298 -86.523499
28.011852 -7.5057416 -86.523399
28.138577 -7.0157323 -86.5233
28.366278 -6.0294528 -86.523102
28.46719 -5.5334549 -86.523003
28.559425 -5.0357995 -86.522903
28.64296 -4.5366101 -86.522797
27.727507 -3.8968375 -86.522697
27.791292 -3.4123404 -86.522499
28.841135 -3.0313325 -86.5224
28.889647 -2.5275176 -86.522202
28.929358 -2.0229385 -86.522102
28.960257 -1.5177433 -86.521896
27.982943 -0.97718632 -86.521797
27.995735 -0.48866758 -86.521599
29 5.0508141e-14 -86.5214
28.995583 0.50612003 -86.521202
28.982334 1.0120858 -86.520897
27.961626 1.4654074 -86.520699
27.931793 1.9531821 -86.520401
27.893452 2.4403617 -86.520203
27.846613 2.9268038 -86.519897
28.783838 3.5342095 -86.5196
28.717775 4.0360103 -86.519302
28.64296 4.5366101 -86.518898
27.574617 4.8621511 -86.5186
28.46719 5.5334549 -86.518204
27.38813 5.8215408 -86.517899
27.28236 6.298635 -86.517403
27.168282 6.7738104 -86.516998
28.837849 8.2691298 -86.516098
28.689142 8.7711515 -86.515503
27.580641 8.9614859 -86.514999
27.420034 9.4414883 -86.514397
28.190777 10.260609 -86.513802
28.007414 10.751035 -86.5131
27.815521 11.238186 -86.512497
28.535646 12.112673 -86.511703
28.31991 12.608835 -86.510902
27.189238 12.678539 -86.510201
27.86261 13.589517 -86.509399
28.512207 14.527699 -86.508598
27.371378 14.553614 -86.5075
27.113218 15.029085 -86.506599
28.286522 16.996254 -86.504799
27.137545 16.957407 -86.503998
27.676123 -17.973097 -87.188301
27.985594 -17.487326 -87.189102
28.286522 -16.996254 -87.189796
28.254326 -15.023085 -87.192101
28.512207 -14.527699 -87.192902
27.86261 -13.589517 -87.193497
28.095545 -13.101157 -87.194099
27.615143 -11.721941 -87.195297
28.742704 -11.612792 -87.195801
28.940994 -11.109403 -87.196198
28.190777 -10.260609 -87.196701
28.365553 -9.7670574 -87.197197
27.580641 -8.9614859 -87.197701
27.732838 -8.4787798 -87.198097
27.876587 -7.9934921 -87.198601
28.011852 -7.5057416 -87.198898
29.108873 -7.2576542 -87.199303
28.256731 -6.5235863 -87.1996
28.366278 -6.0294528 -87.199997
27.485561 -5.3426461 -87.200302
27.574617 -4.8621511 -87.2006
27.655272 -4.3801751 -87.200897
28.717775 -4.0360103 -87.201103
28.783838 -3.5342095 -87.201401
27.846613 -2.9268038 -87.201599
27.893452 -2.4403617 -87.201797
27.931793 -1.9531821 -87.202003
28.960257 -1.5177433 -87.202202
27.982943 -0.97718632 -87.2024
28.995583 -0.50612003 -87.202599
29 5.2520451e-14 -87.202698
27.995735 0.48866758 -87.202904
28.982334 1.0120858 -87.203003
27.961626 1.4654074 -87.203201
27.931793 1.9531821 -87.2033
27.893452 2.4403617 -87.2034
28.841135 3.0313325 -87.203598
28.783838 3.5342095 -87.203697
27.727507 3.8968375 -87.203796
27.655272 4.3801751 -87.203903
27.574617 4.8621511 -87.204002
28.46719 5.5334549 -87.204102
27.38813 5.8215408 -87.204201
27.28236 6.298635 -87.204201
27.168282 6.7738104 -87.2043
28.977777 7.7645602 -87.204399
27.876587 7.9934921 -87.204399
27.732838 8.4787798 -87.204498
27.580641 8.9614859 -87.204597
27.420034 9.4414883 -87.204697
28.190777 10.260609 -87.204697
28.007414 10.751035 -87.204697
27.815521 11.238186 -87.204803
27.615143 11.721941 -87.204803
28.31991 12.608835 -87.204903
28.095545 13.101157 -87.204903
27.86261 13.589517 -87.205002
28.512207 14.527699 -87.205002
27.371378 14.553614 -87.205002
27.113218 15.029085 -87.205101
28.286522 16.996254 -87.205101
27.985594 17.487326 -87.2052
27.676123 17.973097 -87.2052
27.676123 -17.973097 -87.885902
28.833641 -18.017244 -87.885803
28.578835 -16.500006 -87.885803
27.987839 -15.513894 -87.885803
28.254326 -15.023085 -87.885696
27.621201 -14.073709 -87.885696
28.761404 -14.027888 -87.885597
28.095545 -13.101157 -87.885597
28.535646 -12.112673 -87.885498
28.742704 -11.612792 -87.885498
28.940994 -11.109403 -87.885399
28.190777 -10.260609 -87.885399
28.365553 -9.7670574 -87.8853
27.580641 -8.9614859 -87.885201
28.689142 -8.7711515 -87.885101
28.837849 -8.2691298 -87.885101
28.977777 -7.7645602 -87.885002
28.138577 -7.0157323 -87.884903
28.256731 -6.5235863 -87.884804
28.366278 -6.0294528 -87.884697
28.46719 -5.5334549 -87.884598
28.559425 -5.0357995 -87.884499
28.64296 -4.5366101 -87.884399
28.717775 -4.0360103 -87.884201
28.783838 -3.5342095 -87.884102
28.841135 -3.0313325 -87.884003
27.893452 -2.4403617 -87.883797
28.929358 -2.0229385 -87.883598
28.960257 -1.5177433 -87.8834
27.982943 -0.97718632 -87.883202
27.995735 -0.48866758 -87.883003
28 4.8766479e-14 -87.882797
28.995583 0.50612003 -87.882599
27.982943 0.97718632 -87.882401
28.929358 2.0229385 -87.881897
28.889647 2.5275176 -87.881599
27.791292 3.4123404 -87.881104
27.727507 3.8968375 -87.880798
27.655272 4.3801751 -87.880501
28.559425 5.0357995 -87.880096
28.46719 5.5334549 -87.879799
27.38813 5.8215408 -87.879501
28.256731 6.5235863 -87.878998
28.138577 7.0157323 -87.878601
28.011852 7.5057416 -87.878197
27.876587 7.9934921 -87.877701
28.689142 8.7711515 -87.877197
27.580641 8.9614859 -87.876701
27.420034 9.4414883 -87.876198
28.190777 10.260609 -87.875397
27.073833 10.392667 -87.874901
28.742704 11.612792 -87.874199
27.615143 11.721941 -87.873596
27.406364 12.202099 -87.872803
27.189238 12.678539 -87.871902
28.761404 14.027888 -87.8713
28.512207 14.527699 -87.870598
27.987839 15.513894 -87.868896
27.712809 16.000006 -87.867897
28.286522 16.996254 -87.866997
27.676123 -17.973097 -88.550102
28.833641 -18.017244 -88.551003
28.578835 -16.500006 -88.552498
27.987839 -15.513894 -88.553299
27.621201 -14.073709 -88.554703
27.86261 -13.589517 -88.555397
28.095545 -13.101157 -88.555901
28.31991 -12.608835 -88.556503
27.615143 -11.721941 -88.557098
28.742704 -11.612792 -88.5578
28.007414 -10.751035 -88.558296
27.420034 -9.4414883 -88.559196
28.531698 -9.2705021 -88.559799
28.689142 -8.7711515 -88.560097
27.876587 -7.9934921 -88.560501
28.977777 -7.7645602 -88.560799
29.108873 -7.2576542 -88.561203
28.256731 -6.5235863 -88.561501
27.38813 -5.8215408 -88.561798
27.485561 -5.3426461 -88.561996
27.574617 -4.8621511 -88.562302
27.655272 -4.3801751 -88.562599
28.717775 -4.0360103 -88.562798
27.791292 -3.4123404 -88.563004
27.846613 -2.9268038 -88.563202
27.893452 -2.4403617 -88.5634
27.931793 -1.9531821 -88.563698
27.961626 -1.4654074 -88.563797
27.982943 -0.97718632 -88.564003
27.995735 -0.48866758 -88.564201
28 5.0709399e-14 -88.5644
27.995735 0.48866758 -88.564499
27.982943 0.97718632 -88.564697
27.961626 1.4654074 -88.564796
28.929358 2.0229385 -88.564903
27.893452 2.4403617 -88.565102
27.846613 2.9268038 -88.565201
27.791292 3.4123404 -88.5653
28.717775 4.0360103 -88.565399
28.64296 4.5366101 -88.565498
28.559425 5.0357995 -88.565598
27.485561 5.3426461 -88.565697
27.38813 5.8215408 -88.565804
28.256731 6.5235863 -88.565804
27.168282 6.7738104 -88.565903
28.977777 7.7645602 -88.566002
27.876587 7.9934921 -88.566002
27.732838 8.4787798 -88.566101
28.531698 9.2705021 -88.5662
28.365553 9.7670574 -88.5662
27.251085 9.9185886 -88.566299
28.742704 11.612792 -88.566299
28.535646 12.112673 -88.566399
28.31991 12.608835 -88.566399
27.189238 12.678539 -88.566498
28.761404 14.027888 -88.566498
28.512207 14.527699 -88.566498
28.254326 15.023085 -88.566597
27.987839 15.513894 -88.566597
28.578835 16.500006 -88.566597
28.286522 16.996254 -88.566597
27.985594 17.487326 -88.566704
27.676123 17.973097 -88.566704
27.676123 -17.973097 -89.347298
28.833641 -18.017244 -89.347298
28.286522 -16.996254 -89.347198
27.712809 -16.000006 -89.347198
28.862457 -15.998704 -89.347198
27.621201 -14.073709 -89.347099
28.761404 -14.027888 -89.347
28.095545 -13.101157 -89.347
27.615143 -11.721941 -89.346901
27.815521 -11.238186 -89.346802
28.007414 -10.751035 -89.346802
29.13047 -10.602629 -89.346703
27.420034 -9.4414883 -89.346603
28.531698 -9.2705021 -89.346497
28.689142 -8.7711515 -89.346397
28.837849 -8.2691298 -89.346397
28.011852 -7.5057416 -89.346199
28.138577 -7.0157323 -89.346199
28.256731 -6.5235863 -89.3461
28.366278 -6.0294528 -89.346001
28.46719 -5.5334549 -89.345802
28.559425 -5.0357995 -89.345703
27.655272 -4.3801751 -89.345596
27.727507 -3.8968375 -89.345497
28.783838 -3.5342095 -89.345299
27.846613 -2.9268038 -89.3452
27.893452 -2.4403617 -89.3451
28.929358 -2.0229385 -89.344902
27.961626 -1.4654074 -89.344704
28.982334 -1.0120858 -89.344498
28.995583 -0.50612003 -89.344299
29 5.0508141e-14 -89.344101
28.995583 0.50612003 -89.343903
27.982943 0.97718632 -89.343697
28.960257 1.5177433 -89.343498
28.929358 2.0229385 -89.343201
28.889647 2.5275176 -89.342903
28.841135 3.0313325 -89.342598
27.791292 3.4123404 -89.3423
27.727507 3.8968375 -89.342003
27.655272 4.3801751 -89.341599
27.574617 4.8621511 -89.341202
27.485561 5.3426461 -89.340797
28.366278 6.0294528 -89.340401
28.256731 6.5235863 -89.339897
28.138577 7.0157323 -89.3395
28.977777 7.7645602 -89.339104
27.876587 7.9934921 -89.338501
28.689142 8.7711515 -89.337799
28.531698 9.2705021 -89.337303
28.365553 9.7670574 -89.3367
28.190777 10.260609 -89.335899
27.073833 10.392667 -89.335297
27.815521 11.238186 -89.334503
28.535646 12.112673 -89.333702
28.31991 12.608835 -89.332901
27.189238 12.678539 -89.332199
27.86261 13.589517 -89.331299
28.512207 14.527699 -89.330597
28.254326 15.023085 -89.329597
27.113218 15.029085 -89.328598
27.712809 16.000006 -89.327599
28.286522 16.996254 -89.3265
27.985594 17.487326 -89.325401
27.676123 -17.973097 -90.1101
28.286522 -16.996254 -90.111702
27.712809 -16.000006 -90.112701
28.862457 -15.998704 -90.113503
29.137274 -15.492556 -90.114403
27.621201 -14.073709 -90.115097
27.86261 -13.589517 -90.115799
28.095545 -13.101157 -90.116402
27.615143 -11.721941 -90.117699
27.815521 -11.238186 -90.118401
28.940994 -11.109403 -90.118896
28.190777 -10.260609 -90.1194
29.311071 -10.092626 -90.120003
27.580641 -8.9614859 -90.120499
27.732838 -8.4787798 -90.120903
28.837849 -8.2691298 -90.121399
28.011852 -7.5057416 -90.121803
28.138577 -7.0157323 -90.122101
29.2311 -6.7485375 -90.122498
27.38813 -5.8215408 -90.122803
27.485561 -5.3426461 -90.1231
27.574617 -4.8621511 -90.123398
28.64296 -4.5366101 -90.123703
27.727507 -3.8968375 -90.124001
27.791292 -3.4123404 -90.124298
28.841135 -3.0313325 -90.124496
27.893452 -2.4403617 -90.124702
28.929358 -2.0229385 -90.124901
27.961626 -1.4654074 -90.125198
28.982334 -1.0120858 -90.125298
28.995583 -0.50612003 -90.125504
28 5.0709399e-14 -90.125702
28.995583 0.50612003 -90.1259
27.982943 0.97718632 -90.125999
27.961626 1.4654074 -90.126099
28.929358 2.0229385 -90.126297
27.893452 2.4403617 -90.126404
28.841135 3.0313325 -90.126503
28.783838 3.5342095 -90.126602
28.717775 4.0360103 -90.126701
28.64296 4.5366101 -90.126801
27.574617 4.8621511 -90.1269
28.46719 5.5334549 -90.126999
27.38813 5.8215408 -90.127098
28.256731 6.5235863 -90.127197
27.168282 6.7738104 -90.127296
28.977777 7.7645602 -90.127296
28.837849 8.2691298 -90.127403
28.689142 8.7711515 -90.127502
27.580641 8.9614859 -90.127502
27.420034 9.4414883 -90.127602
27.251085 9.9185886 -90.127602
28.007414 10.751035 -90.127701
27.815521 11.238186 -90.127701
28.535646 12.112673 -90.1278
28.31991 12.608835 -90.1278
27.189238 12.678539 -90.127899
28.761404 14.027888 -90.127899
27.621201 14.073709 -90.127899
27.371378 14.553614 -90.127998
27.987839 15.513894 -90.127998
28.578835 16.500006 -90.127998
27.429356 16.481216 -90.128098
27.985594 17.487326 -90.128098
27.676123 -17.973097 -90.908699
27.985594 -17.487326 -90.9086
29.14369 -17.511293 -90.9086
28.578835 -16.500006 -90.9086
28.862457 -15.998704 -90.908501
28.254326 -15.023085 -90.908501
28.512207 -14.527699 -90.908501
27.86261 -13.589517 -90.908401
28.095545 -13.101157 -90.908401
28.31991 -12.608835 -90.908302
27.615143 -11.721941 -90.908302
28.742704 -11.612792 -90.908203
28.940994 -11.109403 -90.908096
28.190777 -10.260609 -90.908096
28.365553 -9.7670574 -90.907997
28.531698 -9.2705021 -90.907898
28.689142 -8.7711515 -90.907799
28.837849 -8.2691298 -90.9077
28.011852 -7.5057416 -90.9077
29.108873 -7.2576542 -90.9076
29.2311 -6.7485375 -90.907402
27.38813 -5.8215408 -90.907402
27.485561 -5.3426461 -90.907204
28.559425 -5.0357995 -90.907097
28.64296 -4.5366101 -90.906998
28.717775 -4.0360103 -90.906898
28.783838 -3.5342095 -90.9067
28.841135 -3.0313325 -90.906601
27.893452 -2.4403617 -90.906403
27.931793 -1.9531821 -90.906303
27.961626 -1.4654074 -90.906097
28.982334 -1.0120858 -90.905899
28.995583 -0.50612003 -90.905701
29 5.0508141e-14 -90.905502
28.995583 0.50612003 -90.905197
27.982943 0.97718632 -90.904999
28.960257 1.5177433 -90.9048
27.931793 1.9531821 -90.904503
28.889647 2.5275176 -90.904198
28.841135 3.0313325 -90.903999
27.791292 3.4123404 -90.903603
28.717775 4.0360103 -90.903297
28.64296 4.5366101 -90.903
28.559425 5.0357995 -90.902702
27.485561 5.3426461 -90.902199
27.38813 5.8215408 -90.901901
28.256731 6.5235863 -90.901398
28.977777 7.7645602 -90.900497
28.837849 8.2691298 -90.900002
28.689142 8.7711515 -90.899498
27.580641 8.9614859 -90.898903
28.365553 9.7670574 -90.8983
27.251085 9.9185886 -90.897598
28.940994 11.109403 -90.896896
27.815521 11.238186 -90.896301
27.615143 11.721941 -90.895599
28.31991 12.608835 -90.8946
27.86261 13.589517 -90.892799
27.621201 14.073709 -90.8918
27.371378 14.553614 -90.890701
27.987839 15.513894 -90.889702
27.712809 16.000006 -90.888603
27.429356 16.481216 -90.887802
27.137545 16.957407 -90.886398
28.833641 -18.017244 -91.573997
29.14369 -17.511293 -91.574799
28.578835 -16.500006 -91.5755
28.862457 -15.998704 -91.576401
28.254326 -15.023085 -91.576897
27.621201 -14.073709 -91.577698
27.86261 -13.589517 -91.5783
28.095545 -13.101157 -91.578903
29.233456 -13.015572 -91.579498
27.615143 -11.721941 -91.580101
28.742704 -11.612792 -91.580597
28.007414 -10.751035 -91.5811
28.190777 -10.260609 -91.581596
28.365553 -9.7670574 -91.582001
27.580641 -8.9614859 -91.582497
28.689142 -8.7711515 -91.582901
28.837849 -8.2691298 -91.583199
28.011852 -7.5057416 -91.583603
28.138577 -7.0157323 -91.5839
27.38813 -5.8215408 -91.584602
28.46719 -5.5334549 -91.5849
28.559425 -5.0357995 -91.585197
27.655272 -4.3801751 -91.585403
27.727507 -3.8968375 -91.585602
28.783838 -3.5342095 -91.585899
27.846613 -2.9268038 -91.586098
28.889647 -2.5275176 -91.586304
28.929358 -2.0229385 -91.586601
28.960257 -1.5177433 -91.5868
27.982943 -0.97718632 -91.586899
27.995735 -0.48866758 -91.587097
28 5.0709399e-14 -91.587196
27.995735 0.48866758 -91.587402
27.982943 0.97718632 -91.587502
27.961626 1.4654074 -91.5877
27.931793 1.9531821 -91.587799
27.893452 2.4403617 -91.587898
27.846613 2.9268038 -91.587997
28.783838 3.5342095 -91.588097
28.717775 4.0360103 -91.588203
28.64296 4.5366101 -91.588303
28.559425 5.0357995 -91.588402
27.485561 5.3426461 -91.588501
27.38813 5.8215408 -91.5886
28.256731 6.5235863 -91.588699
28.977777 7.7645602 -91.588799
27.876587 7.9934921 -91.588898
28.689142 8.7711515 -91.588898
27.580641 8.9614859 -91.588997
28.365553 9.7670574 -91.589104
28.007414 10.751035 -91.589203
27.815521 11.238186 -91.589203
27.615143 11.721941 -91.589203
28.31991 12.608835 -91.589302
27.189238 12.678539 -91.589302
27.86261 13.589517 -91.589401
27.621201 14.073709 -91.589401
28.254326 15.023085 -91.589401
28.578835 16.500006 -91.5895
28.286522 16.996254 -91.5895
27.985594 -17.487326 -92.269997
28.286522 -16.996254 -92.269997
28.578835 -16.500006 -92.269997
28.862457 -15.998704 -92.269897
28.512207 -14.527699 -92.269798
27.86261 -13.589517 -92.269798
28.095545 -13.101157 -92.269699
28.31991 -12.608835 -92.269699
28.535646 -12.112673 -92.2696
27.815521 -11.238186 -92.2696
28.007414 -10.751035 -92.269501
29.13047 -10.602629 -92.269501
27.580641 -8.9614859 -92.269302
27.732838 -8.4787798 -92.269203
28.837849 -8.2691298 -92.269203
28.977777 -7.7645602 -92.269096
29.108873 -7.2576542 -92.268997
28.256731 -6.5235863 -92.268898
27.38813 -5.8215408 -92.268799
27.485561 -5.3426461 -92.2687
