ply
format ascii 1.0
comment PCL generated
element vertex 1463
property float x
property float y
property float z
element camera 0
property float view_px
property float view_py
property float view_pz
property float x_axisx
property float x_axisy
property float x_axisz
property float y_axisx
property float y_axisy
property float y_axisz
property float z_axisx
property float z_axisy
property float z_axisz
property float focal
property float scalex
property float scaley
property float centerx
property float centery
property int viewportx
property int viewporty
property float k1
property float k2
end_header
14.364864 -39.467083 -85.707397
15.409709 -40.144001 -85.714203
15.733628 -38.941662 -85.721901
16.019999 -37.740688 -85.729202
15.409709 -40.144001 -80.979202
15.733628 -38.941662 -80.979202
15.051344 -39.210419 -81.5196
15.733628 -38.941662 -81.529198
16.108238 -39.868843 -82.440697
16.801462 -39.581699 -82.440598
17.489571 -39.282501 -82.440598
17.75012 -38.064857 -82.440598
18.411615 -37.749336 -82.440598
19.067505 -37.422321 -82.440598
19.717958 -37.083717 -82.440598
16.41073 -38.661194 -83.011002
17.082836 -38.368954 -83.016502
17.75012 -38.064857 -83.021698
18.411615 -37.749336 -83.027702
19.067505 -37.422321 -83.032303
19.717958 -37.083717 -83.038498
16.41073 -38.661194 -83.802002
17.082836 -38.368954 -83.802002
17.75012 -38.064857 -83.802002
18.411615 -37.749336 -83.802002
18.613516 -36.531315 -83.802002
19.717958 -37.083717 -83.802002
16.41073 -38.661194 -84.363503
16.676102 -37.45541 -84.370598
17.75012 -38.064857 -84.376099
17.973244 -36.850544 -84.3815
19.067505 -37.422321 -84.386497
19.717958 -37.083717 -84.391296
16.41073 -38.661194 -85.163498
17.082836 -38.368954 -85.163498
17.75012 -38.064857 -85.163498
17.973244 -36.850544 -85.163498
19.067505 -37.422321 -85.163498
17.082836 -38.368954 -85.734901
17.327497 -37.15855 -85.741402
18.411615 -37.749336 -85.746498
18.613516 -36.531315 -85.751404
17.896303 -40.196049 -78.715202
16.801462 -39.581699 -79.517899
17.489571 -39.282501 -79.517799
18.595364 -39.877468 -79.517799
19.288359 -39.546925 -79.517799
19.975481 -39.204338 -79.517799
16.108238 -39.868843 -80.162102
16.801462 -39.581699 -80.1689
17.489571 -39.282501 -80.176598
18.172741 -38.971161 -80.182602
18.849987 -38.648129 -80.1884
19.521494 -38.313332 -80.194901
16.41073 -38.661194 -80.979202
17.489571 -39.282501 -80.979202
17.75012 -38.064857 -80.979202
18.411615 -37.749336 -80.979202
19.521494 -38.313332 -80.979202
16.41073 -38.661194 -81.535698
17.082836 -38.368954 -81.541901
17.75012 -38.064857 -81.548897
18.411615 -37.749336 -81.555496
19.067505 -37.422321 -81.561699
19.717958 -37.083717 -81.566597
19.877224 -35.85939 -83.802002
19.877224 -35.85939 -84.396698
19.248484 -36.200771 -85.163498
19.877224 -35.85939 -85.163498
19.248484 -36.200771 -85.756897
19.877224 -35.85939 -85.7612
20.165102 -41.344513 -78.056503
20.883457 -40.986355 -78.056503
21.59586 -40.615501 -78.056503
26.6873 -41.094868 -78.056396
27.400467 -40.622829 -78.056396
25.966084 -41.554333 -78.7593
26.6873 -41.094868 -78.763199
20.601669 -34.286606 -90.048203
21.196804 -33.921902 -90.0522
22.874828 -35.224171 -90.056702
24.045309 -35.648605 -90.060997
20.601669 -34.286606 -90.909203
21.196804 -33.921902 -90.909203
22.874828 -35.224171 -90.909203
22.926922 -33.990532 -90.909103
21.116711 -35.143768 -91.517403
21.196804 -33.921902 -91.521004
22.330189 -34.385502 -91.525703
22.926922 -33.990532 -91.5289
20.601669 -34.286606 -92.2705
21.196804 -33.921902 -92.2705
22.330189 -34.385502 -92.2705
22.926922 -33.990532 -92.2705
20.499912 -35.507092 -92.876297
21.116711 -35.143768 -92.879997
21.726723 -34.769951 -92.883499
22.874828 -35.224171 -92.887604
22.926922 -33.990532 -92.890701
21.116711 -35.143768 -93.632004
21.196804 -33.921902 -93.632004
22.330189 -34.385502 -93.632004
22.926922 -33.990532 -93.632004
20.499912 -35.507092 -86.524803
21.116711 -35.143768 -86.524803
21.726723 -34.769951 -86.524803
22.330189 -34.385502 -86.524803
23.486115 -34.819569 -86.524803
20.499912 -35.507092 -87.126099
21.116711 -35.143768 -87.130798
21.726723 -34.769951 -87.1353
22.330189 -34.385502 -87.138802
22.926922 -33.990532 -87.142097
21.116711 -35.143768 -87.886299
21.726723 -34.769951 -87.886299
22.330189 -34.385502 -87.886299
23.486115 -34.819569 -87.8862
20.601669 -34.286606 -88.496101
21.726723 -34.769951 -88.499702
22.874828 -35.224171 -88.502998
22.926922 -33.990532 -88.506798
20.601669 -34.286606 -89.347702
21.726723 -34.769951 -89.347702
22.874828 -35.224171 -89.347702
23.486115 -34.819569 -89.347702
24.090214 -34.404385 -90.065002
24.686974 -33.978718 -90.068199
25.276215 -33.542706 -90.071701
25.857788 -33.096447 -90.0746
26.431454 -32.640133 -90.077797
24.090214 -34.404385 -90.909103
24.686974 -33.978718 -90.909103
24.6744 -32.744068 -90.909103
25.242126 -32.308437 -90.909103
26.431454 -32.640133 -90.909103
24.090214 -34.404385 -91.5326
24.099188 -33.169701 -91.5354
25.276215 -33.542706 -91.538696
25.242126 -32.308437 -91.541199
26.431454 -32.640133 -91.544098
24.090214 -34.404385 -92.2705
24.686974 -33.978718 -92.2705
25.276215 -33.542706 -92.2705
25.857788 -33.096447 -92.270401
26.431454 -32.640133 -92.270401
24.090214 -34.404385 -92.894402
24.099188 -33.169701 -92.897202
25.276215 -33.542706 -92.899902
25.857788 -33.096447 -92.902901
26.431454 -32.640133 -92.905403
24.090214 -34.404385 -93.632004
24.686974 -33.978718 -93.632004
25.276215 -33.542706 -93.632004
25.857788 -33.096447 -93.632004
26.431454 -32.640133 -93.632004
24.090214 -34.404385 -86.524803
24.686974 -33.978718 -86.524803
25.878029 -34.341339 -86.524803
25.857788 -33.096447 -86.524696
26.431454 -32.640133 -86.524696
24.090214 -34.404385 -87.145897
24.686974 -33.978718 -87.150002
25.276215 -33.542706 -87.152702
25.857788 -33.096447 -87.155899
26.431454 -32.640133 -87.158401
24.66379 -35.223537 -87.8862
24.686974 -33.978718 -87.8862
25.276215 -33.542706 -87.8862
25.857788 -33.096447 -87.8862
26.431454 -32.640133 -87.8862
24.66379 -35.223537 -88.510399
25.274759 -34.787735 -88.513199
25.276215 -33.542706 -88.5159
25.857788 -33.096447 -88.518997
24.090214 -34.404385 -89.347702
24.686974 -33.978718 -89.347702
25.276215 -33.542706 -89.347702
25.857788 -33.096447 -89.347702
26.431454 -32.640133 -89.347603
20.362036 -36.734009 -82.440598
20.99991 -36.373119 -82.440598
22.146793 -36.858101 -82.440598
22.786564 -36.466045 -82.440598
20.362036 -36.734009 -83.042603
20.99991 -36.373119 -83.046501
22.146793 -36.858101 -83.051003
22.786564 -36.466045 -83.054497
20.42947 -40.095345 -78.734596
20.65691 -38.849609 -78.7407
21.816465 -39.357868 -78.745499
22.999903 -39.837223 -78.750099
20.65691 -38.849609 -79.517799
21.816465 -39.357868 -79.517799
22.499905 -38.971199 -79.517799
23.176878 -38.57243 -79.517799
20.187435 -37.966663 -80.200104
21.331656 -38.48325 -80.205902
22.499905 -38.971199 -80.211403
23.691919 -39.429596 -80.215797
23.846403 -38.16214 -80.220703
20.187435 -37.966663 -80.979202
20.846846 -37.608631 -80.979202
21.499908 -37.239143 -80.979202
22.661837 -37.715263 -80.979202
20.846846 -37.608631 -81.570297
21.999907 -38.105171 -81.5756
22.146793 -36.858101 -81.579803
23.316484 -37.314095 -81.583801
23.964106 -36.901512 -81.587601
23.419466 -36.062843 -82.440598
24.045309 -35.648605 -82.440598
23.419466 -36.062843 -83.0578
24.045309 -35.648605 -83.060997
20.499912 -35.507092 -83.802002
21.631752 -36.000935 -83.802002
22.256643 -35.618 -83.802002
22.874828 -35.224171 -83.802002
23.486115 -34.819569 -83.802002
20.499912 -35.507092 -84.401802
21.116711 -35.143768 -84.405899
21.726723 -34.769951 -84.4104
22.874828 -35.224171 -84.414001
23.486115 -34.819569 -84.417503
20.499912 -35.507092 -85.163498
21.116711 -35.143768 -85.163498
21.726723 -34.769951 -85.163399
22.874828 -35.224171 -85.163399
23.486115 -34.819569 -85.163399
20.499912 -35.507092 -85.766098
21.116711 -35.143768 -85.769997
22.256643 -35.618 -85.773697
22.874828 -35.224171 -85.777901
23.486115 -34.819569 -85.781799
26.958096 -38.500145 -78.056396
27.625898 -38.023804 -78.056396
26.282082 -38.964756 -78.767601
26.958096 -38.500145 -78.771797
27.038115 -37.214787 -78.775002
24.376324 -39.010189 -79.517799
25.053383 -38.578854 -79.517799
25.722889 -38.135719 -79.517799
26.38452 -37.680992 -79.517799
26.450329 -36.405769 -79.5177
26.14266 -40.256195 -80.224602
25.163694 -37.306683 -80.228996
26.38452 -37.680992 -80.232399
26.450329 -36.405769 -80.236397
24.376324 -39.010189 -80.979103
24.508745 -37.740185 -80.979103
25.163694 -37.306683 -80.979103
24.604502 -36.477642 -81.591904
24.66379 -35.223537 -82.440498
25.274759 -34.787735 -82.440498
25.878029 -34.341339 -82.440498
26.47345 -33.884457 -82.440498
27.060774 -33.417278 -82.440498
27.639854 -32.939922 -82.440498
24.090214 -34.404385 -83.064598
24.686974 -33.978718 -83.067398
25.276215 -33.542706 -83.070099
26.47345 -33.884457 -83.072701
27.060774 -33.417278 -83.0756
24.66379 -35.223537 -83.801903
25.274759 -34.787735 -83.801903
25.276215 -33.542706 -83.801903
26.47345 -33.884457 -83.801903
26.431454 -32.640133 -83.801903
24.090214 -34.404385 -84.421303
25.274759 -34.787735 -84.4244
25.878029 -34.341339 -84.427902
25.857788 -33.096447 -84.430603
27.060774 -33.417278 -84.433197
24.66379 -35.223537 -85.163399
25.274759 -34.787735 -85.163399
25.276215 -33.542706 -85.163399
26.47345 -33.884457 -85.163399
26.431454 -32.640133 -85.163399
24.66379 -35.223537 -85.785599
25.274759 -34.787735 -85.789001
25.276215 -33.542706 -85.791801
25.857788 -33.096447 -85.794403
26.431454 -32.640133 -85.796898
27.704773 -35.46048 -78.056396
27.081657 -35.93861 -78.778702
27.081657 -35.93861 -79.5177
27.089111 -34.672466 -79.5177
27.690094 -34.194424 -79.5177
26.479843 -35.139977 -80.239502
27.089111 -34.672466 -80.242401
27.690094 -34.194424 -80.245796
27.639854 -32.939922 -80.248398
25.237366 -36.042686 -80.979103
25.862543 -35.596752 -80.979103
26.479843 -35.139977 -80.979103
26.47345 -33.884457 -80.979103
27.060774 -33.417278 -80.979103
27.639854 -32.939922 -80.978996
25.237366 -36.042686 -81.596001
25.862543 -35.596752 -81.5998
25.878029 -34.341339 -81.602798
26.47345 -33.884457 -81.605598
27.060774 -33.417278 -81.608299
15.732947 -43.225853 -77.237701
16.84317 -43.878326 -75.786903
16.484804 -42.944748 -76.695
17.60668 -43.577572 -76.695
17.973658 -42.343212 -76.695
19.523241 -43.850235 -76.695
16.484804 -42.944748 -77.245903
16.857458 -41.723209 -77.252403
17.973658 -42.343212 -77.257301
18.709772 -42.02314 -77.264297
20.285851 -43.502693 -77.269897
21.041845 -43.142097 -77.275101
22.245422 -43.659378 -77.280098
28.285288 -37.535885 -78.056396
28.319414 -34.971569 -78.056297
28.92543 -34.472012 -78.056297
29.522667 -33.961922 -78.056297
30.110878 -33.441517 -78.056297
31.371916 -33.642277 -78.056297
28.320435 -36.248489 -78.782204
28.319414 -34.971569 -78.784897
28.282642 -33.705967 -78.787498
28.866608 -33.207211 -78.791
29.441748 -32.698372 -78.793297
30.689919 -32.910923 -78.795898
31.259642 -32.370277 -78.797997
28.282642 -33.705967 -79.5177
28.866608 -33.207211 -79.5177
29.441748 -32.698372 -79.5177
28.210548 -32.452503 -80.251404
28.210548 -32.452503 -80.978996
33.343616 -34.528294 -78.056297
33.234024 -33.234013 -78.056198
34.528305 -33.343605 -78.056198
35.836319 -33.417934 -78.056198
32.526917 -32.526905 -78.800301
36.414104 -32.787388 -78.056198
28.80147 -39.641838 -76.694901
29.488916 -39.133156 -76.694901
30.167421 -38.612522 -76.694801
30.836697 -38.080154 -76.694801
31.496578 -37.53619 -76.694801
28.105249 -40.138447 -77.314102
28.213684 -38.832821 -77.317802
28.887102 -38.334518 -77.320602
28.936098 -37.036499 -77.323898
28.948734 -35.748718 -77.327003
28.92543 -34.472012 -77.329903
30.178726 -34.716629 -77.332603
31.449141 -34.927807 -77.334801
32.053913 -34.373631 -77.3368
32.146904 -36.980759 -75.872398
32.787403 -36.414097 -75.874901
32.146904 -36.980759 -76.694801
32.787403 -36.414097 -76.694801
33.417912 -35.836338 -76.694801
34.038277 -35.247635 -76.694702
34.648239 -34.648228 -76.694702
34.038277 -35.247635 -77.338799
33.941132 -33.94112 -77.340599
35.247646 -34.038265 -77.343002
35.836319 -33.417934 -77.345001
-0.52358359 -29.99543 -86.6511
-0.00010652294 -29 -86.759399
-0.45377246 -25.99604 -88.0131
-0.00010284974 -28 -87.9011
-9.183013e-05 -25 -88.121597
0.50620776 -28.995581 -86.799698
1.0469772 -29.981726 -86.825203
1.6223047 -30.957521 -86.845703
2.7018239 -30.882036 -86.884499
3.3448017 -31.824713 -86.903603
3.7780504 -30.768919 -86.921501
3.0312266 -28.841145 -87.886398
3.5343053 -28.783827 -87.886398
0.47129688 -26.995886 -87.886398
0.94227946 -26.983553 -87.886398
1.4653075 -27.961632 -87.886398
1.8835099 -26.934223 -87.886398
2.3532014 -26.897257 -87.886398
3.7576733 -26.737238 -87.886398
0.43638602 -24.996191 -88.167801
0.87248099 -24.984772 -88.196098
1.3083103 -24.965742 -88.2155
1.7439905 -24.939096 -88.240097
2.2660458 -25.901062 -88.256401
2.7176514 -25.857578 -88.271797
3.4124327 -27.791281 -88.289299
3.8968465 -27.727507 -88.305702
2.1788902 -24.904867 -89.776703
-8.0810511e-05 -22 -89.448303
-6.2444487e-05 -17 -90.934601
-0.34905574 -19.996954 -89.576897
-7.34641e-05 -20 -89.6464
3.2850552 -20.741467 -89.847198
4.0069914 -20.61417 -89.879501
0.38401967 -21.996649 -89.354599
0.80268246 -22.985989 -89.347801
1.1513131 -21.969854 -89.347801
1.5347117 -21.946404 -89.347801
2.0045791 -22.912477 -89.347801
2.4040763 -22.874012 -89.347801
2.6811972 -21.836006 -89.347801
3.3401542 -23.766434 -89.347801
3.5979176 -22.716845 -89.347801
1.4649521 -20.948841 -89.754501
2.1950262 -20.884968 -89.7976
3.2009809 -22.776165 -89.829597
3.4730306 -19.696144 -89.863899
0.2967425 -16.99741 -90.909302
0.62818629 -17.989035 -90.909302
0.889651 -16.976706 -90.909302
1.2556732 -17.956148 -90.909302
1.7769259 -16.906878 -90.909302
2.0718341 -16.873278 -90.909302
2.3659425 -16.834557 -90.909302
0.34910882 -19.996952 -89.6828
0.66308552 -18.988426 -89.713203
0.9943158 -18.973965 -89.734703
2.4374521 -19.850916 -89.814003
4.3143659 -30.698311 -86.938301
4.8493671 -30.618355 -86.9515
5.3831973 -30.529022 -86.966599
5.915082 -30.430443 -86.978401
6.4451661 -30.322596 -86.994102
7.4234982 -32.154186 -87.002502
5.533464 -28.467188 -87.886398
4.2236423 -26.667599 -87.886398
4.8622427 -27.5746 -87.886398
5.8214402 -27.388151 -87.886398
6.073771 -26.30797 -87.886299
6.7738194 -27.16828 -87.886299
4.3800735 -27.655289 -88.318703
4.8622427 -27.5746 -88.333397
5.1518459 -26.503933 -88.347198
5.405623 -25.431854 -88.358101
6.5236802 -28.256708 -88.3685
4.3660803 -20.541113 -89.891899
4.9489989 -21.436125 -89.905899
5.4351377 -20.284458 -89.929497
4.1676369 -23.635372 -89.347801
4.3886094 -22.577425 -89.347801
4.7818971 -22.49741 -89.347801
4.9489989 -21.436125 -89.347801
4.8384423 -19.405914 -89.919098
-0.2792446 -15.997563 -91.035202
-5.1424871e-05 -14 -91.131401
-0.17452787 -9.998477 -92.480698
-3.673205e-05 -10 -92.348503
-3.3058845e-05 -9 -92.541298
1.3944898 -15.939116 -90.909302
2.5028992 -15.803021 -90.909302
2.7784245 -15.756914 -90.909302
3.0529456 -15.706035 -90.909302
3.3265371 -15.650373 -90.909302
3.5992718 -15.589909 -90.909302
3.870754 -15.524731 -90.909302
0.26183161 -14.997715 -91.1838
0.48858935 -13.991471 -91.213699
0.83731854 -15.978076 -91.233597
0.97663474 -13.965894 -91.251701
1.2201785 -13.946726 -91.271896
1.5678759 -14.917834 -91.287697
1.7062163 -13.89564 -91.305603
1.9484233 -13.863753 -91.319702
2.5028992 -15.803021 -91.333099
2.6047728 -14.772107 -91.348297
2.8621366 -14.724407 -91.362602
3.1186287 -14.672224 -91.376099
3.1493628 -13.64117 -91.388702
3.6288319 -14.554435 -91.400703
1.5843438 -12.903095 -92.270599
0.19200984 -10.998324 -92.272903
0.38389161 -10.993299 -92.270599
0.62798893 -11.983557 -92.270599
0.76735586 -10.973202 -92.270599
0.95871168 -10.958142 -92.270599
1.1497756 -10.939745 -92.270599
1.5309039 -10.892949 -92.270599
1.7207432 -10.864577 -92.270599
1.9101669 -10.832879 -92.270599
2.0989001 -10.797899 -92.270599
2.2869945 -10.759631 -92.270599
2.4744995 -10.718062 -92.270599
2.6611433 -10.673252 -92.270599
3.105793 -11.59112 -92.270599
0.17455441 -9.998476 -92.573196
0.38389161 -10.993299 -92.593597
0.4709917 -8.9876671 -92.6119
0.62783659 -8.9780741 -92.628899
0.95871168 -10.958142 -92.6511
0.94072551 -8.9507008 -92.666
1.0968534 -8.9329119 -92.682899
1.2525578 -8.9124126 -92.696198
1.4078808 -8.8891993 -92.711304
1.5628637 -8.8632641 -92.723198
1.9080911 -9.8162718 -92.734596
2.0790858 -9.7814827 -92.747398
2.0245905 -8.7693233 -92.759499
2.177299 -8.7326612 -92.768997
2.588161 -9.6592665 -92.778099
-0.087263934 -4.9992385 -93.758797
-2.203923e-05 -6 -93.657799
0.10473264 -5.9990859 -93.632103
0.20939544 -5.996345 -93.632103
0.31399447 -5.9917784 -93.632103
0.41855773 -5.985383 -93.632103
0.52293366 -5.9771681 -93.632103
0.83620042 -7.9561782 -93.632103
0.97498077 -7.9403658 -93.632103
0.83503854 -5.9416084 -93.632103
0.93858719 -5.9261332 -93.632103
1.0419092 -5.908843 -93.632103
1.1448547 -5.8897629 -93.632103
1.4553601 -6.8470378 -93.632103
1.5746814 -6.8205848 -93.632103
1.4515327 -5.821774 -93.632103
1.5528965 -5.7955599 -93.632103
-0.017452788 -0.99984771 -78.2864
-3.6732051e-06 -1 -78.134399
0.01745544 -0.99984765 -78.063499
0.034899238 -0.99939084 -78.056602
0.052332409 -0.99862975 -78.056602
0.069759622 -0.99756384 -78.056602
-3.6732051e-06 -1 -78.355499
0.01745544 -0.99984765 -78.3974
0.034899238 -0.99939084 -78.422096
0.052332409 -0.99862975 -78.443497
0.069759622 -0.99756384 -78.467201
-0.017452788 -0.99984771 -79.674202
-3.6732051e-06 -1 -79.5578
0.01745544 -0.99984765 -79.517899
0.034899238 -0.99939084 -79.517899
0.052332409 -0.99862975 -79.517899
0.069759622 -0.99756384 -79.517899
-3.6732051e-06 -1 -79.781998
0.01745544 -0.99984765 -79.840599
0.034899238 -0.99939084 -79.8741
0.052332409 -0.99862975 -79.896599
0.069759622 -0.99756384 -79.916901
-0.017452788 -0.99984771 -81.036598
-3.6732051e-06 -1 -80.981598
0.01745544 -0.99984765 -80.979301
0.034899238 -0.99939084 -80.979301
0.052332409 -0.99862975 -80.979301
0.069759622 -0.99756384 -80.979301
0.069759622 -0.99756384 -81.308502
0.08715561 -0.99619472 -78.056602
0.10452505 -0.99452227 -78.056602
0.1218726 -0.99254572 -78.056602
0.13917309 -0.99026805 -78.056503
0.1564312 -0.98768884 -78.056503
0.17365153 -0.98480713 -78.056503
0.1908091 -0.98162717 -78.056503
0.20790857 -0.97814828 -78.056503
0.22495449 -0.97436929 -78.056503
0.24192213 -0.97029567 -78.056503
0.25881609 -0.96592665 -78.056503
0.27564088 -0.96126068 -78.056503
0.29237205 -0.95630467 -78.056503
0.3090142 -0.95105743 -78.056503
0.48481035 -0.87461931 -78.056503
0.49999788 -0.86602664 -78.056396
0.51504171 -0.8571651 -78.056396
0.5299201 -0.84804755 -78.056396
0.7547096 -0.65605903 -78.056198
0.76604426 -0.64278781 -78.056099
0.08715561 -0.99619472 -78.489098
0.10452505 -0.99452227 -78.506401
0.1218726 -0.99254572 -78.526001
0.13917309 -0.99026805 -78.544403
0.1564312 -0.98768884 -78.558899
0.17365153 -0.98480713 -78.575401
0.1908091 -0.98162717 -78.588303
0.20790857 -0.97814828 -78.6007
0.22495449 -0.97436929 -78.612396
0.24192213 -0.97029567 -78.623596
0.25881609 -0.96592665 -78.6362
0.27564088 -0.96126068 -78.646202
0.29237205 -0.95630467 -78.657501
0.3090142 -0.95105743 -78.668198
0.51504171 -0.8571651 -78.755302
0.08715561 -0.99619472 -79.517899
0.10452505 -0.99452227 -79.517899
0.1218726 -0.99254572 -79.517899
0.13917309 -0.99026805 -79.517899
0.1564312 -0.98768884 -79.517899
0.17365153 -0.98480713 -79.517899
0.1908091 -0.98162717 -79.517899
0.20790857 -0.97814828 -79.517899
0.22495449 -0.97436929 -79.517899
0.24192213 -0.97029567 -79.517899
0.25881609 -0.96592665 -79.517899
0.27564088 -0.96126068 -79.517899
0.29237205 -0.95630467 -79.517899
0.08715561 -0.99619472 -79.935997
0.10452505 -0.99452227 -79.960999
0.1218726 -0.99254572 -79.980904
0.13917309 -0.99026805 -79.996696
0.1564312 -0.98768884 -80.014503
0.17365153 -0.98480713 -80.028603
0.1908091 -0.98162717 -80.044601
0.20790857 -0.97814828 -80.057198
0.22495449 -0.97436929 -80.069199
0.24192213 -0.97029567 -80.082703
0.25881609 -0.96592665 -80.093399
0.27564088 -0.96126068 -80.105598
0.08715561 -0.99619472 -80.979301
0.10452505 -0.99452227 -80.979301
0.1218726 -0.99254572 -80.979301
0.13917309 -0.99026805 -80.979301
0.1564312 -0.98768884 -80.979301
0.17365153 -0.98480713 -80.979301
0.1908091 -0.98162717 -80.979301
0.20790857 -0.97814828 -80.979301
0.22495449 -0.97436929 -80.979301
0.24192213 -0.97029567 -80.979202
0.25881609 -0.96592665 -80.979202
0.08715561 -0.99619472 -81.326302
0.10452505 -0.99452227 -81.342903
0.1218726 -0.99254572 -81.361801
0.13917309 -0.99026805 -81.376602
0.1564312 -0.98768884 -81.393303
0.17365153 -0.98480713 -81.406601
0.1908091 -0.98162717 -81.4216
0.20790857 -0.97814828 -81.433403
0.22495449 -0.97436929 -81.444603
0.24192213 -0.97029567 -81.457397
0.25881609 -0.96592665 -81.4674
26.35428 -31.407831 -90.080299
27.554489 -31.697794 -90.083199
27.434357 -30.468937 -90.085403
26.997068 -32.173878 -90.909103
27.554489 -31.697794 -90.909103
27.961926 -29.985508 -90.908997
26.997068 -32.173878 -91.546799
26.89843 -30.943085 -91.5494
27.961926 -29.985508 -91.553299
26.35428 -31.407831 -92.270401
27.554489 -31.697794 -92.270401
27.434357 -30.468937 -92.270401
26.997068 -32.173878 -92.908096
27.554489 -31.697794 -92.910698
27.434357 -30.468937 -92.912697
26.997068 -32.173878 -93.631897
27.554489 -31.697794 -93.631897
26.997068 -32.173878 -86.524696
27.554489 -31.697794 -86.524696
27.961926 -29.985508 -86.524696
26.997068 -32.173878 -87.161201
27.554489 -31.697794 -87.163803
27.434357 -30.468937 -87.165901
27.961926 -29.985508 -87.1679
26.997068 -32.173878 -87.8862
26.89843 -30.943085 -87.8862
25.802134 -31.862986 -88.5214
26.997068 -32.173878 -88.523598
26.89843 -30.943085 -88.526199
27.434357 -30.468937 -88.528297
26.35428 -31.407831 -89.347603
27.554489 -31.697794 -89.347603
28.054249 -27.091681 -91.558899
27.554489 -31.697794 -82.440498
26.997068 -32.173878 -83.077904
27.554489 -31.697794 -83.080002
26.997068 -32.173878 -83.801903
27.554489 -31.697794 -83.801903
26.997068 -32.173878 -84.435699
27.554489 -31.697794 -84.438499
27.961926 -29.985508 -84.442802
26.997068 -32.173878 -85.163399
27.554489 -31.697794 -85.1633
26.997068 -32.173878 -85.799698
27.554489 -31.697794 -85.802299
26.997068 -32.173878 -81.611397
27.554489 -31.697794 -81.6138
27.95224 -21.06353 -90.105698
27.95224 -21.06353 -90.908798
27.95224 -21.06353 -91.569099
27.95224 -21.06353 -92.270203
27.95224 -21.06353 -92.930397
27.95224 -21.06353 -93.631699
27.95224 -21.06353 -86.524498
27.95224 -21.06353 -87.183899
27.95224 -21.06353 -87.886002
27.95224 -21.06353 -88.546303
27.851173 -19.501593 -90.108101
27.676123 -17.973097 -90.1101
27.985594 -17.487326 -90.111
27.506569 -19.984711 -90.908798
27.851173 -19.501593 -90.908699
27.676123 -17.973097 -90.908699
27.985594 -17.487326 -90.9086
27.851173 -19.501593 -91.571297
27.358238 -18.453367 -91.572304
27.851173 -19.501593 -92.270103
27.985594 -17.487326 -92.269997
27.851173 -19.501593 -92.932899
27.985594 -17.487326 -92.935303
27.506569 -19.984711 -93.631699
27.851173 -19.501593 -93.631699
27.358238 -18.453367 -93.631599
27.851173 -19.501593 -86.524399
27.358238 -18.453367 -86.524399
27.429356 -16.481216 -86.5243
27.676123 -17.973097 -87.188301
27.985594 -17.487326 -87.189102
27.506569 -19.984711 -87.885902
27.851173 -19.501593 -87.885902
27.676123 -17.973097 -87.885902
27.429356 -16.481216 -87.885803
27.358238 -18.453367 -88.549202
27.676123 -17.973097 -88.550102
27.429356 -16.481216 -88.551598
27.676123 -17.973097 -89.347298
27.95224 -21.06353 -83.100403
27.95224 -21.06353 -83.801598
27.153605 -20.461716 -84.459503
27.95224 -21.06353 -85.163101
27.95224 -21.06353 -78.056099
27.153605 -20.461716 -79.517403
27.153605 -20.461716 -80.2743
27.153605 -20.461716 -81.636703
27.851173 -19.501593 -82.440102
27.358238 -18.453367 -82.440102
27.137545 -16.957407 -82.440002
27.429356 -16.481216 -82.440002
27.506569 -19.984711 -83.101402
27.851173 -19.501593 -83.102402
27.985594 -17.487326 -83.105202
27.851173 -19.501593 -83.801598
27.985594 -17.487326 -84.4646
27.429356 -16.481216 -84.465302
27.506569 -19.984711 -85.163101
27.358238 -18.453367 -85.163002
27.851173 -19.501593 -85.825203
27.676123 -17.973097 -85.827003
27.429356 -16.481216 -85.828499
27.712809 -16.000006 -90.112701
27.621201 -14.073709 -90.115097
27.86261 -13.589517 -90.115799
27.86261 -13.589517 -90.908401
27.621201 -14.073709 -91.577698
27.86261 -13.589517 -91.5783
27.371378 -14.553614 -92.269897
27.86261 -13.589517 -92.269798
27.712809 -16.000006 -92.936897
27.712809 -16.000006 -93.6315
27.987839 -15.513894 -93.6315
27.621201 -14.073709 -85.831398
27.189238 -12.678539 -85.832901
27.712809 -16.000006 -86.5243
27.987839 -15.513894 -86.5242
27.621201 -14.073709 -86.5242
27.86261 -13.589517 -86.524101
27.86261 -13.589517 -87.193497
27.987839 -15.513894 -87.885803
27.621201 -14.073709 -87.885696
27.987839 -15.513894 -88.553299
27.371378 -14.553614 -88.554001
27.621201 -14.073709 -88.554703
27.86261 -13.589517 -88.555397
27.712809 -16.000006 -89.347198
27.371378 -14.553614 -89.347099
27.621201 -14.073709 -89.347099
27.406364 -12.202099 -90.117104
27.615143 -11.721941 -90.117699
27.815521 -11.238186 -90.118401
27.580641 -8.9614859 -90.120499
27.732838 -8.4787798 -90.120903
27.615143 -11.721941 -90.908302
27.615143 -11.721941 -91.580101
28.007414 -10.751035 -91.5811
27.580641 -8.9614859 -91.582497
27.815521 -11.238186 -92.2696
28.007414 -10.751035 -92.269501
27.420034 -9.4414883 -92.269402
27.580641 -8.9614859 -92.269302
27.732838 -8.4787798 -92.269203
27.615143 -11.721941 -92.941299
28.007414 -10.751035 -92.942398
27.580641 -8.9614859 -92.943703
27.580641 -8.9614859 -93.630898
27.732838 -8.4787798 -93.630798
27.615143 -11.721941 -85.834099
27.815521 -11.238186 -85.834602
27.420034 -9.4414883 -85.836098
27.815521 -11.238186 -86.523903
28.007414 -10.751035 -86.523903
27.251085 -9.9185886 -86.523804
27.420034 -9.4414883 -86.523697
27.732838 -8.4787798 -86.523598
27.406364 -12.202099 -87.194702
27.615143 -11.721941 -87.195297
27.580641 -8.9614859 -87.197701
27.732838 -8.4787798 -87.198097
27.406364 -12.202099 -87.885597
27.580641 -8.9614859 -87.885201
27.615143 -11.721941 -88.557098
28.007414 -10.751035 -88.558296
27.251085 -9.9185886 -88.5588
27.420034 -9.4414883 -88.559196
27.406364 -12.202099 -89.346901
27.615143 -11.721941 -89.346901
27.815521 -11.238186 -89.346802
28.007414 -10.751035 -89.346802
27.420034 -9.4414883 -89.346603
27.712809 -16.000006 -82.439903
27.987839 -15.513894 -82.439903
27.371378 -14.553614 -82.439903
27.621201 -14.073709 -82.439796
27.712809 -16.000006 -83.106598
27.987839 -15.513894 -83.1073
27.621201 -14.073709 -83.108902
27.987839 -15.513894 -83.801399
27.371378 -14.553614 -83.8013
27.86261 -13.589517 -83.8013
27.987839 -15.513894 -84.466904
27.371378 -14.553614 -84.467499
27.621201 -14.073709 -84.468399
27.712809 -16.000006 -85.162903
27.987839 -15.513894 -85.162903
27.86261 -13.589517 -85.162804
27.189238 -12.678539 -85.162697
27.712809 -16.000006 -85.8293
27.987839 -15.513894 -85.830101
27.615143 -11.721941 -82.439598
27.580641 -8.9614859 -82.439201
27.732838 -8.4787798 -82.439102
28.007414 -10.751035 -83.112297
27.420034 -9.4414883 -83.113297
27.732838 -8.4787798 -83.114197
27.615143 -11.721941 -83.801102
27.815521 -11.238186 -83.801003
27.251085 -9.9185886 -83.800903
27.732838 -8.4787798 -83.800697
27.406364 -12.202099 -84.470497
27.615143 -11.721941 -84.4711
27.815521 -11.238186 -84.471703
28.007414 -10.751035 -84.472198
27.420034 -9.4414883 -84.473503
27.580641 -8.9614859 -84.473801
27.732838 -8.4787798 -84.474403
27.406364 -12.202099 -85.162697
27.615143 -11.721941 -85.162598
27.815521 -11.238186 -85.162598
28.007414 -10.751035 -85.162498
27.251085 -9.9185886 -85.162498
27.420034 -9.4414883 -85.162399
28.011852 -7.5057416 -85.8377
27.28236 -6.298635 -85.838402
27.38813 -5.8215408 -85.838799
27.485561 -5.3426461 -85.838997
27.574617 -4.8621511 -85.839401
28.011852 -7.5057416 -86.523399
27.28236 -6.298635 -86.523201
27.876587 -7.9934921 -87.198601
28.011852 -7.5057416 -87.198898
27.485561 -5.3426461 -87.200302
27.574617 -4.8621511 -87.2006
27.655272 -4.3801751 -87.200897
27.876587 -7.9934921 -88.560501
27.38813 -5.8215408 -88.561798
27.485561 -5.3426461 -88.561996
27.574617 -4.8621511 -88.562302
27.655272 -4.3801751 -88.562599
28.011852 -7.5057416 -89.346199
27.655272 -4.3801751 -89.345596
27.846613 -2.9268038 -85.840302
27.893452 -2.4403617 -85.840599
27.931793 -1.9531821 -85.840797
27.982943 -0.97718632 -85.841103
27.727507 -3.8968375 -86.522697
27.791292 -3.4123404 -86.522499
27.982943 -0.97718632 -86.521797
27.995735 -0.48866758 -86.521599
27.846613 -2.9268038 -87.201599
27.893452 -2.4403617 -87.201797
27.931793 -1.9531821 -87.202003
27.982943 -0.97718632 -87.2024
27.893452 -2.4403617 -87.883797
27.982943 -0.97718632 -87.883202
27.995735 -0.48866758 -87.883003
27.791292 -3.4123404 -88.563004
27.846613 -2.9268038 -88.563202
27.893452 -2.4403617 -88.5634
27.931793 -1.9531821 -88.563698
27.961626 -1.4654074 -88.563797
27.982943 -0.97718632 -88.564003
27.995735 -0.48866758 -88.564201
27.727507 -3.8968375 -89.345497
27.846613 -2.9268038 -89.3452
27.893452 -2.4403617 -89.3451
27.961626 -1.4654074 -89.344704
27.846613 -2.9268038 -82.437698
27.893452 -2.4403617 -82.4375
27.961626 -1.4654074 -82.437202
27.727507 -3.8968375 -83.117302
27.791292 -3.4123404 -83.1175
27.893452 -2.4403617 -83.117897
27.961626 -1.4654074 -83.118301
27.846613 -2.9268038 -83.7995
27.893452 -2.4403617 -83.799301
27.931793 -1.9531821 -84.478798
27.961626 -1.4654074 -84.478996
27.982943 -0.97718632 -84.479301
27.727507 -3.8968375 -85.1614
27.791292 -3.4123404 -85.161301
27.931793 -1.9531821 -85.160896
27.982943 -0.97718632 -85.160599
27.931793 -1.9531821 -78.053497
27.982943 -0.97718632 -78.053101
27.961626 -1.4654074 -78.833397
27.995735 -0.48866758 -78.8339
27.791292 -3.4123404 -79.515404
27.893452 -2.4403617 -79.515099
27.982943 -0.97718632 -79.514503
27.727507 -3.8968375 -80.2938
27.791292 -3.4123404 -80.294098
27.893452 -2.4403617 -80.294601
27.931793 -1.9531821 -80.294701
27.982943 -0.97718632 -80.295197
27.995735 -0.48866758 -80.295403
27.791292 -3.4123404 -80.976601
27.846613 -2.9268038 -80.976402
27.961626 -1.4654074 -80.975899
27.982943 -0.97718632 -80.9757
27.846613 -2.9268038 -81.655502
27.893452 -2.4403617 -81.6558
27.931793 -1.9531821 -81.655998
27.961626 -1.4654074 -81.656197
-0.017452788 -0.99984771 -74.045502
-3.6732051e-06 -1 -73.929497
0.01745544 -0.99984765 -73.872498
0.034899238 -0.99939084 -73.8722
0.052332409 -0.99862975 -73.8722
0.069759622 -0.99756384 -73.8722
-3.6732051e-06 -1 -74.117699
0.01745544 -0.99984765 -74.158997
0.034899238 -0.99939084 -74.185997
0.052332409 -0.99862975 -74.205002
0.069759622 -0.99756384 -74.225899
-0.017452788 -0.99984771 -75.3592
-3.6732051e-06 -1 -75.258904
0.01745544 -0.99984765 -75.233704
0.034899238 -0.99939084 -75.233704
0.052332409 -0.99862975 -75.233704
0.069759622 -0.99756384 -75.233704
-3.6732051e-06 -1 -75.455399
0.01745544 -0.99984765 -75.501297
0.034899238 -0.99939084 -75.533096
0.052332409 -0.99862975 -75.553596
0.069759622 -0.99756384 -75.5755
-0.017452788 -0.99984771 -76.845398
-3.6732051e-06 -1 -76.734596
0.01745544 -0.99984765 -76.695396
0.034899238 -0.99939084 -76.695099
0.052332409 -0.99862975 -76.695099
0.069759622 -0.99756384 -76.695099
-3.6732051e-06 -1 -76.929398
0.01745544 -0.99984765 -76.969597
0.034899238 -0.99939084 -76.999496
0.052332409 -0.99862975 -77.023201
0.069759622 -0.99756384 -77.041
-0.017452788 -0.99984771 -69.8619
-3.6732051e-06 -1 -69.934898
0.01745544 -0.99984765 -69.971001
0.034899238 -0.99939084 -69.999298
0.052332409 -0.99862975 -70.0187
0.069759622 -0.99756384 -70.039803
-0.017452788 -0.99984771 -71.197601
-3.6732051e-06 -1 -71.074203
0.01745544 -0.99984765 -71.049698
0.034899238 -0.99939084 -71.049698
0.052332409 -0.99862975 -71.049698
0.069759622 -0.99756384 -71.049698
-3.6732051e-06 -1 -71.280998
0.01745544 -0.99984765 -71.327003
0.034899238 -0.99939084 -71.351097
0.052332409 -0.99862975 -71.371201
0.069759622 -0.99756384 -71.392899
-0.017452788 -0.99984771 -72.638397
-3.6732051e-06 -1 -72.510803
0.01745544 -0.99984765 -72.425003
0.034899238 -0.99939084 -72.410797
0.052332409 -0.99862975 -72.410797
0.069759622 -0.99756384 -72.410797
-3.6732051e-06 -1 -72.707298
0.01745544 -0.99984765 -72.743698
0.034899238 -0.99939084 -72.769501
0.052332409 -0.99862975 -72.791496
0.069759622 -0.99756384 -72.815598
0.08715561 -0.99619472 -73.8722
0.10452505 -0.99452227 -73.8722
0.1218726 -0.99254572 -73.8722
0.13917309 -0.99026805 -73.8722
0.1564312 -0.98768884 -73.8722
0.17365153 -0.98480713 -73.8722
0.20790857 -0.97814828 -73.8722
0.22495449 -0.97436929 -73.8722
0.24192213 -0.97029567 -73.8722
0.25881609 -0.96592665 -73.8722
0.27564088 -0.96126068 -73.8722
0.29237205 -0.95630467 -73.8722
0.3090142 -0.95105743 -73.8722
0.32557172 -0.94551736 -73.8722
0.3420206 -0.93969244 -73.8722
0.35836533 -0.93358141 -73.8722
0.37461022 -0.92718238 -73.8722
0.39073169 -0.92050463 -73.8722
0.40673417 -0.91354656 -73.8722
0.42262191 -0.90630609 -73.872101
0.43837181 -0.89879376 -73.872101
0.45398819 -0.89100766 -73.872101
0.46947521 -0.88294566 -73.872101
0.48481035 -0.87461931 -73.872101
0.49999788 -0.86602664 -73.872101
0.51504171 -0.8571651 -73.872101
0.5299201 -0.84804755 -73.872101
0.54463875 -0.83867073 -73.872101
0.55919319 -0.82903737 -73.872101
0.57357651 -0.819152 -73.872101
0.58778507 -0.80901712 -73.872101
0.60181463 -0.79863578 -73.872101
0.61566162 -0.7880106 -73.872002
0.62932032 -0.77714604 -73.872002
0.64278734 -0.76604468 -73.872002
0.65605927 -0.75470936 -73.872002
0.66913062 -0.74314481 -73.872002
0.68199819 -0.73135388 -73.872002
0.6946587 -0.71933949 -73.872002
0.70710689 -0.70710665 -73.871902
0.71933973 -0.69465846 -73.871902
0.7313534 -0.68199867 -73.871902
0.74314499 -0.66913038 -73.871902
0.7547096 -0.65605903 -73.871902
0.76604426 -0.64278781 -73.871803
0.77714622 -0.62932009 -73.871803
0.78801084 -0.61566138 -73.871803
0.08715561 -0.99619472 -74.2453
0.10452505 -0.99452227 -74.260597
0.1218726 -0.99254572 -74.277901
0.13917309 -0.99026805 -74.291496
0.1564312 -0.98768884 -74.306999
0.17365153 -0.98480713 -74.321602
0.1908091 -0.98162717 -74.333
0.20790857 -0.97814828 -74.344002
0.22495449 -0.97436929 -74.354301
0.24192213 -0.97029567 -74.364197
0.25881609 -0.96592665 -74.373497
0.27564088 -0.96126068 -74.384201
0.29237205 -0.95630467 -74.392601
0.3090142 -0.95105743 -74.400497
0.32557172 -0.94551736 -74.408096
0.3420206 -0.93969244 -74.415298
0.35836533 -0.93358141 -74.423401
0.37461022 -0.92718238 -74.429901
0.39073169 -0.92050463 -74.437202
0.40673417 -0.91354656 -74.442902
0.42262191 -0.90630609 -74.449501
0.43837181 -0.89879376 -74.454597
0.45398819 -0.89100766 -74.459503
0.46947521 -0.88294566 -74.464996
0.48481035 -0.87461931 -74.469398
0.49999788 -0.86602664 -74.473602
0.51504171 -0.8571651 -74.477501
0.5299201 -0.84804755 -74.482002
0.54463875 -0.83867073 -74.486198
0.55919319 -0.82903737 -74.489502
0.57357651 -0.819152 -74.493301
0.58778507 -0.80901712 -74.496803
0.60181463 -0.79863578 -74.499603
0.61566162 -0.7880106 -74.5028
0.62932032 -0.77714604 -74.505798
0.64278734 -0.76604468 -74.508102
0.65605927 -0.75470936 -74.510803
0.66913062 -0.74314481 -74.513298
0.68199819 -0.73135388 -74.515297
0.6946587 -0.71933949 -74.517097
0.70710689 -0.70710665 -74.519302
0.71933973 -0.69465846 -74.521004
0.7313534 -0.68199867 -74.522903
0.74314499 -0.66913038 -74.524597
0.7547096 -0.65605903 -74.5261
0.76604426 -0.64278781 -74.527702
0.77714622 -0.62932009 -74.5289
0.78801084 -0.61566138 -74.530296
0.08715561 -0.99619472 -75.233704
0.10452505 -0.99452227 -75.233704
0.1218726 -0.99254572 -75.233704
0.13917309 -0.99026805 -75.233597
0.1564312 -0.98768884 -75.233597
0.17365153 -0.98480713 -75.233597
0.1908091 -0.98162717 -75.233597
0.20790857 -0.97814828 -75.233597
0.22495449 -0.97436929 -75.233597
0.24192213 -0.97029567 -75.233597
0.25881609 -0.96592665 -75.233597
0.27564088 -0.96126068 -75.233597
0.29237205 -0.95630467 -75.233597
0.3090142 -0.95105743 -75.233597
0.32557172 -0.94551736 -75.233597
0.3420206 -0.93969244 -75.233597
0.35836533 -0.93358141 -75.233597
0.37461022 -0.92718238 -75.233597
0.39073169 -0.92050463 -75.233597
0.40673417 -0.91354656 -75.233597
0.42262191 -0.90630609 -75.233597
0.43837181 -0.89879376 -75.233597
0.45398819 -0.89100766 -75.233597
0.46947521 -0.88294566 -75.233597
0.48481035 -0.87461931 -75.233597
0.49999788 -0.86602664 -75.233498
0.51504171 -0.8571651 -75.233498
0.5299201 -0.84804755 -75.233498
0.54463875 -0.83867073 -75.233498
0.55919319 -0.82903737 -75.233498
0.57357651 -0.819152 -75.233498
0.58778507 -0.80901712 -75.233498
0.60181463 -0.79863578 -75.233498
0.61566162 -0.7880106 -75.233498
0.62932032 -0.77714604 -75.233498
0.64278734 -0.76604468 -75.233398
0.65605927 -0.75470936 -75.233398
0.66913062 -0.74314481 -75.233398
0.68199819 -0.73135388 -75.233398
0.6946587 -0.71933949 -75.233398
0.70710689 -0.70710665 -75.233398
0.71933973 -0.69465846 -75.233299
0.7313534 -0.68199867 -75.233299
0.74314499 -0.66913038 -75.233299
0.7547096 -0.65605903 -75.233299
0.76604426 -0.64278781 -75.2332
0.77714622 -0.62932009 -75.2332
0.78801084 -0.61566138 -75.2332
0.08715561 -0.99619472 -75.595802
0.10452505 -0.99452227 -75.6147
0.1218726 -0.99254572 -75.629501
0.13917309 -0.99026805 -75.649101
0.1564312 -0.98768884 -75.664803
0.17365153 -0.98480713 -75.6772
0.1908091 -0.98162717 -75.6912
0.20790857 -0.97814828 -75.702301
0.22495449 -0.97436929 -75.714798
0.24192213 -0.97029567 -75.724701
0.25881609 -0.96592665 -75.736
0.27564088 -0.96126068 -75.744797
0.29237205 -0.95630467 -75.754898
0.3090142 -0.95105743 -75.762802
0.32557172 -0.94551736 -75.770302
0.3420206 -0.93969244 -75.7789
0.37461022 -0.92718238 -75.794403
0.39073169 -0.92050463 -75.8004
0.40673417 -0.91354656 -75.807198
0.42262191 -0.90630609 -75.8125
0.43837181 -0.89879376 -75.818497
0.45398819 -0.89100766 -75.823303
0.46947521 -0.88294566 -75.827797
0.48481035 -0.87461931 -75.8321
0.49999788 -0.86602664 -75.836197
0.51504171 -0.8571651 -75.840103
0.5299201 -0.84804755 -75.844498
0.54463875 -0.83867073 -75.848
0.55919319 -0.82903737 -75.851898
0.57357651 -0.819152 -75.855598
0.58778507 -0.80901712 -75.8591
0.60181463 -0.79863578 -75.862396
0.61566162 -0.7880106 -75.864998
0.62932032 -0.77714604 -75.867401
0.64278734 -0.76604468 -75.869797
0.68199819 -0.73135388 -75.8769
0.6946587 -0.71933949 -75.879097
0.70710689 -0.70710665 -75.881203
0.71933973 -0.69465846 -75.882896
0.7313534 -0.68199867 -75.884697
0.74314499 -0.66913038 -75.8862
0.7547096 -0.65605903 -75.887604
0.76604426 -0.64278781 -75.888901
0.77714622 -0.62932009 -75.890404
0.78801084 -0.61566138 -75.891602
0.08715561 -0.99619472 -76.695099
0.10452505 -0.99452227 -76.695099
0.1218726 -0.99254572 -76.695099
0.13917309 -0.99026805 -76.695099
0.1564312 -0.98768884 -76.695099
0.17365153 -0.98480713 -76.695099
0.1908091 -0.98162717 -76.695099
0.20790857 -0.97814828 -76.695
0.22495449 -0.97436929 -76.695
0.24192213 -0.97029567 -76.695
0.25881609 -0.96592665 -76.695
0.27564088 -0.96126068 -76.695
0.29237205 -0.95630467 -76.695
0.3090142 -0.95105743 -76.695
0.32557172 -0.94551736 -76.695
0.3420206 -0.93969244 -76.695
0.42262191 -0.90630609 -76.695
0.43837181 -0.89879376 -76.695
0.45398819 -0.89100766 -76.695
0.46947521 -0.88294566 -76.695
0.48481035 -0.87461931 -76.695
0.49999788 -0.86602664 -76.694901
0.51504171 -0.8571651 -76.694901
0.5299201 -0.84804755 -76.694901
0.54463875 -0.83867073 -76.694901
0.55919319 -0.82903737 -76.694901
0.57357651 -0.819152 -76.694901
0.71933973 -0.69465846 -76.694702
0.7313534 -0.68199867 -76.694702
0.74314499 -0.66913038 -76.694603
0.7547096 -0.65605903 -76.694603
0.76604426 -0.64278781 -76.694603
0.77714622 -0.62932009 -76.694603
0.78801084 -0.61566138 -76.694504
0.08715561 -0.99619472 -77.060997
0.10452505 -0.99452227 -77.079597
0.1218726 -0.99254572 -77.097198
0.13917309 -0.99026805 -77.111
0.1564312 -0.98768884 -77.1241
0.17365153 -0.98480713 -77.139
0.1908091 -0.98162717 -77.150703
0.20790857 -0.97814828 -77.164101
0.22495449 -0.97436929 -77.174599
0.24192213 -0.97029567 -77.184601
0.25881609 -0.96592665 -77.194
0.27564088 -0.96126068 -77.204803
0.29237205 -0.95630467 -77.213303
0.3090142 -0.95105743 -77.2229
0.32557172 -0.94551736 -77.230499
0.46947521 -0.88294566 -77.284897
0.48481035 -0.87461931 -77.289398
0.49999788 -0.86602664 -77.293701
0.51504171 -0.8571651 -77.297798
0.5299201 -0.84804755 -77.302399
0.54463875 -0.83867073 -77.306099
0.55919319 -0.82903737 -77.310204
0.74314499 -0.66913038 -77.346497
0.7547096 -0.65605903 -77.348198
0.76604426 -0.64278781 -77.349602
0.77714622 -0.62932009 -77.351196
0.08715561 -0.99619472 -70.056198
0.10452505 -0.99452227 -70.071701
0.1218726 -0.99254572 -70.089302
0.13917309 -0.99026805 -70.103203
0.1564312 -0.98768884 -70.118896
0.17365153 -0.98480713 -70.133698
0.1908091 -0.98162717 -70.145401
0.20790857 -0.97814828 -70.156502
0.22495449 -0.97436929 -70.167
0.24192213 -0.97029567 -70.177002
0.25881609 -0.96592665 -70.1884
0.27564088 -0.96126068 -70.197403
0.29237205 -0.95630467 -70.207497
0.3090142 -0.95105743 -70.217102
0.32557172 -0.94551736 -70.226097
0.3420206 -0.93969244 -70.2332
0.35836533 -0.93358141 -70.239899
0.37461022 -0.92718238 -70.2463
0.39073169 -0.92050463 -70.252403
0.40673417 -0.91354656 -70.2593
0.42262191 -0.90630609 -70.264801
0.43837181 -0.89879376 -70.269997
0.45398819 -0.89100766 -70.274902
0.46947521 -0.88294566 -70.279602
0.48481035 -0.87461931 -70.283997
0.49999788 -0.86602664 -70.289001
0.51504171 -0.8571651 -70.2938
0.5299201 -0.84804755 -70.297501
0.54463875 -0.83867073 -70.301102
0.55919319 -0.82903737 -70.305099
0.57357651 -0.819152 -70.308296
0.58778507 -0.80901712 -70.311897
0.60181463 -0.79863578 -70.314697
0.61566162 -0.7880106 -70.317398
0.62932032 -0.77714604 -70.320503
0.64278734 -0.76604468 -70.322899
0.65605927 -0.75470936 -70.3274
0.66913062 -0.74314481 -70.329399
0.68199819 -0.73135388 -70.331802
0.6946587 -0.71933949 -70.333603
0.70710689 -0.70710665 -70.335701
0.71933973 -0.69465846 -70.3377
0.7313534 -0.68199867 -70.339302
0.74314499 -0.66913038 -70.340698
0.7547096 -0.65605903 -70.342697
0.76604426 -0.64278781 -70.344299
0.77714622 -0.62932009 -70.345497
0.78801084 -0.61566138 -70.346603
0.08715561 -0.99619472 -71.049698
0.10452505 -0.99452227 -71.049698
0.1218726 -0.99254572 -71.049599
0.13917309 -0.99026805 -71.049599
0.1564312 -0.98768884 -71.049599
0.17365153 -0.98480713 -71.049599
0.1908091 -0.98162717 -71.049599
0.20790857 -0.97814828 -71.049599
0.22495449 -0.97436929 -71.049599
0.24192213 -0.97029567 -71.049599
0.25881609 -0.96592665 -71.049599
0.27564088 -0.96126068 -71.049599
0.29237205 -0.95630467 -71.049599
0.3090142 -0.95105743 -71.049599
0.32557172 -0.94551736 -71.049599
0.3420206 -0.93969244 -71.049599
0.35836533 -0.93358141 -71.049599
0.37461022 -0.92718238 -71.049599
0.39073169 -0.92050463 -71.049599
0.40673417 -0.91354656 -71.049599
0.42262191 -0.90630609 -71.049599
0.43837181 -0.89879376 -71.049599
0.45398819 -0.89100766 -71.049599
0.46947521 -0.88294566 -71.049599
0.48481035 -0.87461931 -71.049599
0.49999788 -0.86602664 -71.0495
0.51504171 -0.8571651 -71.0495
0.5299201 -0.84804755 -71.0495
0.54463875 -0.83867073 -71.0495
0.55919319 -0.82903737 -71.0495
0.57357651 -0.819152 -71.0495
0.58778507 -0.80901712 -71.0495
0.60181463 -0.79863578 -71.0495
0.61566162 -0.7880106 -71.0495
0.62932032 -0.77714604 -71.0495
0.64278734 -0.76604468 -71.0494
0.65605927 -0.75470936 -71.0494
0.66913062 -0.74314481 -71.0494
0.68199819 -0.73135388 -71.0494
0.6946587 -0.71933949 -71.0494
0.70710689 -0.70710665 -71.0494
0.71933973 -0.69465846 -71.049301
0.7313534 -0.68199867 -71.049301
0.74314499 -0.66913038 -71.049301
0.7547096 -0.65605903 -71.049301
0.76604426 -0.64278781 -71.049301
0.77714622 -0.62932009 -71.049202
0.78801084 -0.61566138 -71.049202
0.08715561 -0.99619472 -71.413002
0.10452505 -0.99452227 -71.428802
0.1218726 -0.99254572 -71.443703
0.13917309 -0.99026805 -71.460701
0.1564312 -0.98768884 -71.479202
0.17365153 -0.98480713 -71.494102
0.1908091 -0.98162717 -71.508102
0.20790857 -0.97814828 -71.519096
0.22495449 -0.97436929 -71.529602
0.24192213 -0.97029567 -71.539497
0.25881609 -0.96592665 -71.549004
0.27564088 -0.96126068 -71.557999
0.29237205 -0.95630467 -71.568199
0.3090142 -0.95105743 -71.574699
0.32557172 -0.94551736 -71.582397
0.3420206 -0.93969244 -71.591202
0.35836533 -0.93358141 -71.598099
0.37461022 -0.92718238 -71.604698
0.39073169 -0.92050463 -71.610901
0.40673417 -0.91354656 -71.617996
0.42262191 -0.90630609 -71.623596
0.43837181 -0.89879376 -71.628899
0.45398819 -0.89100766 -71.633904
0.46947521 -0.88294566 -71.638702
0.48481035 -0.87461931 -71.643303
0.49999788 -0.86602664 -71.647598
0.51504171 -0.8571651 -71.652496
0.5299201 -0.84804755 -71.656403
0.54463875 -0.83867073 -71.660797
0.55919319 -0.82903737 -71.6642
0.57357651 -0.819152 -71.668098
0.58778507 -0.80901712 -71.671204
0.60181463 -0.79863578 -71.674698
0.61566162 -0.7880106 -71.677498
0.62932032 -0.77714604 -71.680603
0.64278734 -0.76604468 -71.683098
0.65605927 -0.75470936 -71.685501
0.66913062 -0.74314481 -71.687698
0.68199819 -0.73135388 -71.690201
0.6946587 -0.71933949 -71.6922
0.70710689 -0.70710665 -71.694099
0.71933973 -0.69465846 -71.696297
0.7313534 -0.68199867 -71.697998
0.74314499 -0.66913038 -71.6996
0.7547096 -0.65605903 -71.701103
0.76604426 -0.64278781 -71.702599
0.77714622 -0.62932009 -71.703903
0.78801084 -0.61566138 -71.705299
0.08715561 -0.99619472 -72.410797
0.10452505 -0.99452227 -72.410797
0.1218726 -0.99254572 -72.410797
0.13917309 -0.99026805 -72.410797
0.1564312 -0.98768884 -72.410797
0.17365153 -0.98480713 -72.410797
0.1908091 -0.98162717 -72.410797
0.20790857 -0.97814828 -72.410797
0.22495449 -0.97436929 -72.410797
0.24192213 -0.97029567 -72.410797
0.25881609 -0.96592665 -72.410797
0.27564088 -0.96126068 -72.410797
0.29237205 -0.95630467 -72.410797
0.3090142 -0.95105743 -72.410797
0.32557172 -0.94551736 -72.410797
0.3420206 -0.93969244 -72.410797
0.35836533 -0.93358141 -72.410797
0.37461022 -0.92718238 -72.410797
0.39073169 -0.92050463 -72.410797
0.40673417 -0.91354656 -72.410797
0.42262191 -0.90630609 -72.410698
0.43837181 -0.89879376 -72.410698
0.45398819 -0.89100766 -72.410698
0.46947521 -0.88294566 -72.410698
0.48481035 -0.87461931 -72.410698
0.49999788 -0.86602664 -72.410698
0.51504171 -0.8571651 -72.410698
0.5299201 -0.84804755 -72.410698
0.54463875 -0.83867073 -72.410698
0.55919319 -0.82903737 -72.410698
0.57357651 -0.819152 -72.410698
0.58778507 -0.80901712 -72.410698
0.60181463 -0.79863578 -72.410698
0.61566162 -0.7880106 -72.410599
0.62932032 -0.77714604 -72.410599
0.64278734 -0.76604468 -72.410599
0.65605927 -0.75470936 -72.410599
0.66913062 -0.74314481 -72.410599
0.68199819 -0.73135388 -72.410599
0.6946587 -0.71933949 -72.410599
0.70710689 -0.70710665 -72.4105
0.71933973 -0.69465846 -72.4105
0.7313534 -0.68199867 -72.4105
0.74314499 -0.66913038 -72.4105
0.7547096 -0.65605903 -72.4105
0.76604426 -0.64278781 -72.4104
0.77714622 -0.62932009 -72.4104
0.78801084 -0.61566138 -72.4104
0.08715561 -0.99619472 -72.834297
0.10452505 -0.99452227 -72.852097
0.1218726 -0.99254572 -72.868896
0.13917309 -0.99026805 -72.888
0.1564312 -0.98768884 -72.903
0.17365153 -0.98480713 -72.920097
0.1908091 -0.98162717 -72.933502
0.20790857 -0.97814828 -72.946297
0.22495449 -0.97436929 -72.958397
0.24192213 -0.97029567 -72.972198
0.25881609 -0.96592665 -72.985199
0.27564088 -0.96126068 -72.995499
0.29237205 -0.95630467 -73.005203
0.3090142 -0.95105743 -73.014397
0.32557172 -0.94551736 -73.023201
0.3420206 -0.93969244 -73.033203
0.35836533 -0.93358141 -73.041
0.37461022 -0.92718238 -73.0485
0.39073169 -0.92050463 -73.055603
0.40673417 -0.91354656 -73.063698
0.42262191 -0.90630609 -73.07
0.43837181 -0.89879376 -73.077202
0.45398819 -0.89100766 -73.082901
0.46947521 -0.88294566 -73.089401
0.48481035 -0.87461931 -73.093399
0.49999788 -0.86602664 -73.099297
0.51504171 -0.8571651 -73.103798
0.5299201 -0.84804755 -73.109001
0.54463875 -0.83867073 -73.113899
