ply
format ascii 1.0
comment PCL generated
element vertex 1518
property float x
property float y
property float z
element camera 0
property float view_px
property float view_py
property float view_pz
property float x_axisx
property float x_axisy
property float x_axisz
property float y_axisx
property float y_axisy
property float y_axisz
property float z_axisx
property float z_axisy
property float z_axisz
property float focal
property float scalex
property float scaley
property float centerx
property float centery
property int viewportx
property int viewporty
property float k1
property float k2
end_header
27.872053 5.3564529 -69.011673
27.84507 5.837069 -69.011314
27.847116 6.3206296 -69.008324
27.85519 6.7984409 -69.009033
27.856726 7.5013547 -69.005714
27.877245 7.9935012 -69.006104
27.901913 8.7786913 -69.007637
27.946993 9.2755203 -69.001228
27.978559 9.4351215 -69.004173
27.987249 9.9086723 -69.001022
27.966866 10.388281 -69.001236
27.909262 11.239959 -69.005829
27.783506 12.100834 -69.007935
27.822807 12.211794 -69.006508
27.815357 12.686688 -69.003387
27.839157 13.154668 -69.006981
27.841011 14.530054 -69.008141
27.886627 14.550982 -69.003883
27.901247 16.012463 -69.017395
27.915602 15.996595 -69.005905
27.927357 16.476004 -69.004669
27.952614 16.94224 -69.008057
27.957888 18.528732 -69.007202
27.980671 19.017847 -69.008354
27.992138 18.917219 -68.995918
27.980436 -21.061991 -69.686966
27.815474 -19.977219 -69.682564
27.787838 -19.503366 -69.688469
27.718523 -19.008877 -69.687706
27.67588 -18.490871 -69.6903
27.821236 -16.966206 -69.681885
27.848967 -16.4891 -69.685463
27.80975 -16.482336 -69.685768
27.915258 -15.511408 -69.688469
27.95203 -14.560822 -69.683456
27.930979 -14.519472 -69.686417
27.942062 -14.032783 -69.683632
27.957531 -13.100059 -69.687103
27.952375 -12.606498 -69.684128
27.921583 -12.116769 -69.683945
27.898005 -11.237517 -69.687096
27.877222 -10.75238 -69.686852
27.856453 -10.26591 -69.683746
27.856703 -9.4433594 -69.697289
27.854588 -8.9675007 -69.696053
27.844152 -8.4816341 -69.691399
27.850578 -7.9926901 -69.686165
27.875221 -7.0014219 -69.685799
27.960564 -6.337039 -69.689926
27.977024 -6.0078487 -69.679932
28.006264 -5.5135751 -69.675316
28.08864 -4.8834205 -69.700645
28.11977 -4.396306 -69.701134
28.141764 -3.9073358 -69.698547
28.165752 -3.4185777 -69.693794
28.145428 -3.0323124 -69.678093
28.081305 -1.4641575 -69.68615
27.977484 0.00012841042 -69.684669
28.068014 0.97756606 -69.684395
28.139177 2.4470868 -69.684746
28.119316 2.9367511 -69.683533
28.079149 3.4243529 -69.68412
28.013714 3.9068823 -69.68438
27.942564 4.5111098 -69.679268
27.929304 4.8759408 -69.683525
27.878668 5.3545375 -69.6838
27.857595 5.8347473 -69.684181
27.816269 6.5065079 -69.676819
27.827328 6.7966676 -69.686989
27.800699 7.5006146 -69.680862
27.834307 8.2668791 -69.683243
27.889828 8.7766571 -69.681328
27.924437 8.9589462 -69.680504
27.963381 9.4335938 -69.677055
27.95121 10.261046 -69.677116
27.937761 10.749904 -69.675591
27.908381 11.239735 -69.677818
27.796562 12.100517 -69.671356
27.798353 12.599917 -69.671143
27.81855 12.693079 -69.673584
27.82523 13.589362 -69.673416
27.850464 14.533343 -69.667534
27.864767 14.549564 -69.673111
27.877329 16.00679 -69.671013
27.909327 16.507477 -69.669785
27.940716 17.000128 -69.670235
27.969669 17.487827 -69.667801
27.990032 18.54073 -69.677238
27.991737 18.428457 -69.655525
28.022505 18.877262 -69.642227
27.912409 -20.421371 -70.331047
27.927254 -20.589691 -70.356056
27.748549 -18.926205 -70.340904
27.695854 -17.973705 -70.351845
27.818821 -16.96623 -70.344673
27.786406 -16.985464 -70.360397
27.876907 -16.00507 -70.352524
27.953516 -15.043029 -70.357315
27.924522 -15.017255 -70.353691
27.965872 -14.074278 -70.358047
27.941509 -14.027508 -70.358475
27.958244 -12.679286 -70.364326
27.940287 -12.606961 -70.359474
27.932032 -11.721089 -70.362259
27.924778 -11.236807 -70.360062
27.878912 -10.377165 -70.37075
27.849443 -10.267698 -70.356598
27.829176 -9.776948 -70.357002
27.840847 -8.9645195 -70.367271
27.809626 -8.4811163 -70.363274
27.79616 -8.2371941 -70.339394
27.843828 -6.9997344 -70.357742
27.921 -6.3275552 -70.374985
27.944605 -5.8437595 -70.375992
28.001036 -5.3645234 -70.375526
28.047935 -4.8798256 -70.370522
28.066444 -4.5158405 -70.354599
28.123283 -3.9083099 -70.372284
28.148876 -3.4197226 -70.372719
28.173248 -2.9319029 -70.37265
28.148756 -2.4402299 -70.369789
28.127134 -1.950664 -70.366768
28.086813 -1.4642835 -70.366623
27.996868 1.0827209e-05 -70.366096
28.057596 0.97758865 -70.366188
28.10821 1.4668598 -70.366653
28.145351 2.4471579 -70.366425
28.107477 3.0092814 -70.365211
28.073204 3.5066476 -70.366325
27.995173 4.0176954 -70.368546
27.957315 4.515738 -70.365891
27.902502 5.0098767 -70.370171
27.885868 5.3587804 -70.367638
27.868059 5.8414593 -70.367958
27.791714 6.5065374 -70.366226
27.760805 7.0033226 -70.365356
27.787857 7.2639122 -70.375587
27.811935 7.9931269 -70.367729
27.864237 8.4787321 -70.366554
27.891495 8.9582472 -70.363274
27.908445 9.768136 -70.367294
27.943214 9.9177294 -70.369202
27.902122 11.239735 -70.369301
27.853828 11.726317 -70.373039
27.790211 12.599609 -70.358192
27.803234 12.685383 -70.376801
27.803036 13.589327 -70.367882
27.820749 14.071449 -70.369377
27.849977 14.548988 -70.37104
27.842318 15.514977 -70.365692
27.866722 16.513371 -70.367584
27.911486 17.008312 -70.369484
27.954239 18.062033 -70.381027
27.968536 17.957439 -70.364372
28.002798 18.42149 -70.351578
28.353643 20.064287 -70.374939
27.950867 -20.412195 -71.045059
27.868822 -19.970568 -71.046272
27.822803 -19.502254 -71.049294
27.771759 -19.012749 -71.051987
27.708668 -17.974201 -71.048843
27.847775 -16.489185 -71.04493
27.883751 -16.003872 -71.048592
27.946663 -15.041089 -71.051704
27.932827 -15.018891 -71.047585
27.940994 -14.525078 -71.047783
27.96179 -14.020592 -71.047241
27.935293 -12.200096 -71.046967
27.907911 -11.718844 -71.04937
27.887609 -11.237359 -71.04953
27.84347 -9.9046774 -71.056946
27.830217 -9.4354153 -71.057587
27.835533 -8.9662447 -71.05072
27.803885 -8.4804478 -71.049606
27.797911 -7.9908142 -71.046196
27.812084 -7.2900205 -71.065277
27.79785 -6.9955745 -71.041504
27.846941 -6.3284206 -71.060028
27.864031 -6.006372 -71.040665
27.952656 -5.3628817 -71.050819
28.006651 -4.8791075 -71.049278
28.062422 -4.393868 -71.050529
28.08189 -4.0163856 -71.036934
28.132544 -3.4191329 -71.056427
28.138088 -3.0224774 -71.031189
28.139612 -2.4415081 -71.051605
28.070633 -1.4646739 -71.047653
28.047077 -0.97723156 -71.046768
28.025761 -0.48871553 -71.046349
28.036209 0.48880342 -71.045853
28.071337 0.97811443 -71.045677
28.123362 3.0048313 -71.044876
28.095293 3.4240675 -71.04406
28.05098 3.9104581 -71.043213
27.958147 4.5149393 -71.041962
27.936768 4.8742599 -71.047379
27.889875 5.3583689 -71.046219
27.817347 6.0056715 -71.040237
27.817663 6.3189344 -71.045731
27.795097 6.7967558 -71.044945
27.790598 8.2839899 -71.049751
27.837244 8.4774227 -71.040009
27.897167 8.9596443 -71.039864
27.928108 9.7689161 -71.040001
27.93288 10.258344 -71.040512
27.94832 10.406611 -71.027596
27.89764 11.240953 -71.036736
27.756582 12.095936 -71.028419
27.769459 12.597332 -71.026276
27.777592 13.101851 -71.029564
27.811163 13.150997 -71.048126
27.804581 14.071873 -71.035934
27.803207 15.024877 -71.02771
27.830412 15.029006 -71.033295
27.825697 16.517332 -71.024078
27.900564 17.016066 -71.028946
27.942806 18.064186 -71.034775
27.96418 17.954647 -71.022781
27.994394 18.416529 -71.021927
28.027061 18.859585 -71.019844
28.075216 -21.055861 -71.706497
27.969063 -20.589346 -71.709381
27.874437 -20.109961 -71.71553
27.73105 -17.97505 -71.710617
27.81213 -16.973347 -71.705688
27.793972 -16.986198 -71.713829
27.887335 -16.002371 -71.714691
27.938725 -15.040729 -71.719269
27.92522 -15.018784 -71.711784
27.934101 -14.519982 -71.713814
27.939318 -14.026451 -71.714096
27.951893 -13.101452 -71.717278
27.914097 -12.199732 -71.723518
27.872047 -11.718774 -71.721725
27.846476 -11.237634 -71.719833
27.838697 -10.754607 -71.718483
27.836254 -10.268397 -71.713905
27.834955 -9.4332542 -71.727768
27.793571 -9.2772465 -71.720276
27.784809 -8.7548523 -71.705933
27.776161 -7.9896779 -71.720695
27.784523 -7.2902427 -71.736748
27.778288 -6.9951577 -71.71833
27.802515 -6.5000315 -71.715256
27.844881 -6.0014052 -71.717216
27.88673 -5.5096593 -71.719498
27.968443 -4.8766093 -71.7304
27.981379 -4.5194974 -71.714806
28.021807 -4.0223656 -71.715096
28.068211 -3.521385 -71.714294
28.114166 -3.0180581 -71.714088
28.122141 -1.952853 -71.729065
28.08181 -1.4660565 -71.727997
28.022976 -6.8432753e-05 -71.727379
28.066952 0.97761828 -71.72702
28.111202 1.4670303 -71.726349
28.14818 2.4470437 -71.728371
28.151176 2.9995 -71.730164
28.113234 3.4274428 -71.727089
28.021955 4.0094242 -71.728561
27.997477 4.393703 -71.730537
27.953983 4.876379 -71.731514
27.898689 5.3573008 -71.731621
27.848692 5.839572 -71.730522
27.766947 6.5066838 -71.732285
27.776539 6.7911448 -71.727066
27.773808 7.2629361 -71.726547
27.807661 7.994524 -71.730171
27.871424 8.7703915 -71.735611
27.916327 8.9602251 -71.72979
27.968201 9.4332514 -71.726013
27.934484 10.256494 -71.731201
27.944283 10.411242 -71.728058
27.802069 11.589397 -71.741692
27.749823 12.091345 -71.73777
27.792545 12.210619 -71.729782
27.750437 13.098789 -71.727737
27.784479 13.143331 -71.727272
27.769621 14.072635 -71.730499
27.796463 14.550174 -71.733025
27.816656 15.023229 -71.735504
27.80727 16.518467 -71.739227
27.847038 16.466911 -71.728325
27.889645 16.91798 -71.724754
27.955318 18.547523 -71.723289
27.995964 19.022476 -71.729202
28.301907 20.066444 -71.730492
28.052254 -21.057667 -72.408783
27.886688 -19.969009 -72.405174
27.871683 -20.108067 -72.424255
27.744667 -18.457813 -72.403465
27.724125 -17.974474 -72.409828
27.736965 -17.479158 -72.410599
27.789053 -16.985447 -72.408287
27.87442 -16.002214 -72.412308
27.94385 -15.044376 -72.412361
27.926788 -15.016385 -72.40686
27.977516 -14.074335 -72.416801
27.930433 -14.033361 -72.399803
27.893799 -12.199551 -72.420059
27.832315 -12.120963 -72.401505
27.851 -11.237582 -72.410248
27.831648 -10.377954 -72.416969
27.797668 -10.268724 -72.407455
27.799923 -9.4342833 -72.415237
27.763422 -9.2828064 -72.398117
27.782011 -8.4798498 -72.410225
27.789331 -7.2873654 -72.421005
27.806023 -6.8052058 -72.419174
27.844215 -6.3285723 -72.421158
27.887701 -5.8464732 -72.416107
27.917618 -5.3615518 -72.416916
27.952108 -4.875371 -72.417564
27.988745 -4.3882565 -72.417152
28.053253 -3.9071741 -72.415886
28.072205 -3.5141714 -72.406006
28.102201 -3.015177 -72.41008
28.055094 -0.97746176 -72.408028
28.030876 3.7832691e-05 -72.407478
28.014425 0.48858392 -72.407097
28.14596 1.9542898 -72.405418
28.171528 2.4483218 -72.404655
28.1444 3.0061309 -72.41497
28.097992 3.5057566 -72.415779
28.080498 3.9131939 -72.402
27.983318 4.5083108 -72.415268
27.960192 4.8766203 -72.401497
27.853743 5.5159597 -72.409927
27.849325 5.8351655 -72.396858
27.793236 6.5093913 -72.412102
27.780489 7.0079174 -72.409912
27.813213 7.256536 -72.39502
27.821766 8.2788334 -72.40432
27.869493 8.4793091 -72.400856
27.928631 9.2756357 -72.39975
27.956293 9.7685194 -72.403046
27.976748 9.9196205 -72.396217
27.836693 11.580215 -72.415962
27.77351 12.090038 -72.412079
27.763117 12.595922 -72.40564
27.777899 12.691297 -72.387253
27.762474 13.589547 -72.39502
27.756325 14.073928 -72.395546
27.76269 14.552287 -72.396858
27.780148 15.022942 -72.395775
27.795746 15.997625 -72.391953
27.855635 17.011099 -72.384216
27.879873 16.923464 -72.393524
27.967941 18.543623 -72.380898
27.983501 18.420193 -72.396713
28.078291 19.493366 -72.388046
27.977907 -20.593601 -73.17466
27.821297 -18.907324 -73.157982
27.799198 -19.018641 -73.175568
27.749958 -17.973698 -73.171051
27.809528 -16.958801 -73.17453
27.781025 -16.989475 -73.171959
27.854565 -16.001242 -73.174377
27.884089 -15.512636 -73.173531
27.951731 -14.557023 -73.187599
27.936422 -14.07282 -73.180893
27.910889 -14.034707 -73.166954
27.852839 -12.610686 -73.172127
27.829229 -11.719821 -73.181519
27.823139 -11.238085 -73.179893
27.780018 -10.271784 -73.174332
27.807024 -9.4344988 -73.188271
27.801867 -8.9641619 -73.18425
27.779875 -8.7560387 -73.174873
27.785963 -7.9895186 -73.183182
27.830183 -7.2865858 -73.185616
27.822336 -6.9979796 -73.182777
27.888975 -6.3310094 -73.192314
27.889645 -6.0039048 -73.176743
27.958481 -5.3617239 -73.193497
27.98238 -4.8743067 -73.189468
27.976009 -4.524828 -73.183815
28.028919 -4.0182776 -73.188408
28.095852 -3.5087519 -73.188187
28.129316 -2.9346957 -73.186859
28.110418 -2.4424777 -73.187645
28.108738 -1.9535277 -73.186913
28.030766 -0.9774797 -73.187691
28.008501 -0.4887462 -73.187958
28.016951 0.48851919 -73.188446
28.120754 1.9526333 -73.18679
28.154524 2.4460616 -73.186195
28.133539 3.0092776 -73.197906
28.12886 3.4276447 -73.183365
28.034752 4.0106688 -73.20768
28.013937 4.3942733 -73.176018
27.975119 4.879189 -73.175308
27.922979 5.3578372 -73.175941
27.86899 5.8374472 -73.178558
27.833557 6.506701 -73.197906
27.798965 7.0050488 -73.195076
27.818855 7.2670083 -73.179443
27.842299 7.993341 -73.190552
27.893883 8.4789867 -73.188316
27.944679 8.9586277 -73.185295
27.976751 9.4363108 -73.185539
27.980471 10.260301 -73.191048
27.946175 11.241053 -73.188408
27.917532 11.733273 -73.184074
27.789238 12.595387 -73.195908
27.768845 13.164576 -73.189796
27.71464 14.535355 -73.193085
27.747215 15.023002 -73.190437
27.746792 16.023844 -73.167702
27.772381 15.998866 -73.192284
27.82144 16.467224 -73.196777
27.864378 16.923975 -73.194595
27.927435 17.958574 -73.195961
27.982634 18.416615 -73.197334
28.018551 18.879938 -73.204292
28.079935 -21.056938 -73.869057
27.975323 -20.589531 -73.883034
27.838795 -18.897038 -73.849289
27.791748 -18.449739 -73.863388
27.778393 -18.518246 -73.884476
27.762939 -17.485352 -73.872932
27.819008 -16.483183 -73.874359
27.781023 -16.502144 -73.875183
27.880497 -15.512023 -73.871452
27.933599 -14.55503 -73.880554
27.922934 -14.072254 -73.878075
27.888742 -13.58951 -73.871681
27.83642 -12.202163 -73.878654
27.819742 -11.71878 -73.874733
27.817438 -11.238146 -73.871239
27.812307 -9.9083099 -73.877228
27.801954 -9.4403067 -73.870346
27.76722 -9.2697172 -73.878464
27.777924 -8.7490225 -73.888741
27.833315 -7.4967875 -73.869209
27.845829 -6.9988894 -73.86998
27.914677 -6.3314557 -73.872025
27.952448 -5.8472733 -73.86631
27.949039 -5.511404 -73.87043
27.969425 -5.0178146 -73.870407
27.996088 -4.5204563 -73.870049
28.099102 -3.9132931 -73.870667
28.133072 -3.4256227 -73.86937
28.137484 -2.9346499 -73.8675
28.055439 -1.4655613 -73.868523
28.002666 -0.97718048 -73.869064
27.998518 0.48865798 -73.868431
28.084358 1.4641354 -73.86721
28.102451 1.9518734 -73.866684
28.149502 2.9357109 -73.862114
28.147505 3.4274004 -73.861145
28.049383 4.0160432 -73.882179
28.044928 4.3919806 -73.85965
27.96891 5.0143132 -73.880455
27.920801 5.5113182 -73.880264
27.90498 5.8428144 -73.853172
27.83984 6.5037518 -73.87326
27.85568 6.8040228 -73.856071
27.831701 7.5012288 -73.866417
27.853573 7.9932775 -73.863297
27.898056 8.4788246 -73.862587
27.938152 8.9593773 -73.860252
27.988245 9.4356117 -73.854767
28.014788 10.260778 -73.861763
27.921511 11.590612 -73.86795
27.939249 11.727683 -73.854294
27.816708 12.588735 -73.865578
27.828335 12.702149 -73.845795
27.814234 13.169912 -73.841507
27.73324 14.074594 -73.855072
27.719213 14.555858 -73.857735
27.739597 15.032563 -73.860695
27.766344 15.999435 -73.854042
27.868469 17.017756 -73.845093
27.885223 17.493084 -73.850052
27.916603 18.546366 -73.839851
27.951984 18.420172 -73.860199
28.406826 20.084511 -73.842369
28.114506 -21.054934 -74.526329
28.015884 -20.589886 -74.543892
27.847616 -19.501682 -74.534088
27.817959 -18.443745 -74.52829
27.797653 -18.525196 -74.545197
27.816057 -16.954351 -74.528
27.797289 -16.997751 -74.542267
27.851994 -16.000374 -74.539055
27.888454 -15.512157 -74.538147
27.909218 -15.021581 -74.53656
27.917511 -14.531998 -74.532425
27.863155 -13.589517 -74.54081
27.835629 -12.673872 -74.551147
27.810389 -12.201611 -74.550667
27.7911 -12.119795 -74.528366
27.80567 -11.238379 -74.542992
27.795084 -10.754775 -74.542091
27.814377 -9.916234 -74.543098
27.809172 -9.4436712 -74.543541
27.819767 -8.9662971 -74.542976
27.79747 -8.7533379 -74.556519
27.840982 -6.9981365 -74.547981
27.909063 -6.3333917 -74.548294
27.910433 -6.0046635 -74.549149
27.985741 -5.364419 -74.543335
28.017794 -4.8773689 -74.544067
28.061146 -4.3947515 -74.540199
28.119413 -3.9131973 -74.541031
28.126245 -3.5073354 -74.558846
28.105833 -2.44203 -74.548538
28.07889 -1.9524112 -74.548218
27.992775 -0.9771347 -74.549828
27.948208 -0.48880774 -74.549477
27.937119 -4.2294381e-05 -74.549232
28.01421 0.97673172 -74.550667
28.060764 1.4631577 -74.550056
28.103575 1.9519417 -74.549896
28.131062 3.0182252 -74.554321
28.120968 3.5123827 -74.558746
28.098742 3.9084744 -74.550377
28.025499 4.5150232 -74.55426
27.985806 5.0136032 -74.552582
27.965832 5.3619289 -74.550781
27.931232 5.842566 -74.547432
27.874235 6.5066128 -74.555962
27.878122 6.8042536 -74.547112
27.851965 7.5002003 -74.554855
27.873617 8.2697897 -74.552444
27.911356 8.7710075 -74.552567
27.936087 9.276926 -74.556297
27.993483 9.4364405 -74.547363
27.997061 10.259683 -74.553215
27.997614 11.240464 -74.551506
27.963924 11.727708 -74.550659
27.902895 12.220963 -74.549728
27.799957 13.092134 -74.55722
27.789906 13.587543 -74.553391
27.75491 14.075711 -74.550392
27.73358 15.013409 -74.549728
27.739765 15.514306 -74.547798
27.800632 16.526688 -74.538177
27.858614 17.019058 -74.545326
27.869701 16.918539 -74.562675
27.936281 18.545944 -74.534027
28.008728 19.024008 -74.547485
28.407776 20.089689 -74.546356
28.103409 -21.055365 -75.229744
27.943836 -19.967167 -75.227577
27.889069 -19.500292 -75.232277
27.850536 -18.439053 -75.221489
27.811274 -17.97179 -75.231773
27.800901 -17.48963 -75.23439
27.792311 -16.999846 -75.231155
27.842958 -16.000746 -75.232727
27.876171 -15.51225 -75.233269
27.911533 -14.550521 -75.232735
27.885799 -14.5338 -75.229736
27.869808 -14.038101 -75.222878
27.811018 -12.671631 -75.236244
27.7901 -12.611927 -75.225807
27.791653 -11.72283 -75.233604
27.791388 -11.238315 -75.232307
27.8267 -10.38211 -75.227272
27.827677 -9.9146566 -75.228653
27.825111 -9.4452324 -75.227531
27.797455 -9.2617359 -75.236176
27.800219 -8.7515793 -75.23571
27.812716 -7.9911776 -75.232887
27.870045 -6.4987321 -75.237991
27.949276 -5.8548307 -75.220573
27.98465 -5.3677945 -75.220963
27.994627 -5.0128446 -75.239761
28.017206 -4.5190125 -75.236427
28.05295 -4.0203538 -75.236099
28.122688 -3.422318 -75.229057
28.115696 -2.442965 -75.230125
28.025885 -1.4644073 -75.23069
27.970577 -0.97740012 -75.230125
27.918745 -0.48942173 -75.229401
28.009912 0.97657627 -75.229462
28.086702 1.4631715 -75.229172
28.128277 1.9525524 -75.229324
28.147522 2.4424856 -75.229202
28.169031 2.9354842 -75.231812
28.165798 3.4268644 -75.233421
28.120224 3.9112332 -75.230568
28.053225 4.5162983 -75.223579
28.060251 4.8827658 -75.228233
28.018333 5.3649583 -75.227608
27.942812 6.0154033 -75.224594
27.934338 6.3213711 -75.223488
27.872459 7.0074716 -75.225861
27.897274 7.2674208 -75.214539
27.891006 7.9937792 -75.224037
27.91317 8.7741776 -75.224594
27.947104 9.2732897 -75.221703
27.966377 9.7700615 -75.224396
27.975565 10.260559 -75.222328
28.000584 11.240586 -75.220299
27.954336 11.726544 -75.220413
27.912142 12.21291 -75.21476
27.773884 14.005989 -75.224838
27.797251 14.078735 -75.215988
27.78998 14.567362 -75.215965
27.795486 15.045587 -75.211212
27.793518 15.999737 -75.214333
27.840643 17.015259 -75.208908
27.877012 17.492971 -75.210945
27.929745 18.53684 -75.199028
27.939949 18.431602 -75.216515
28.118322 19.485588 -75.213943
27.951002 -19.971529 -75.89254
27.901663 -19.50012 -75.895081
27.840097 -18.441896 -75.892387
27.808844 -17.970428 -75.895638
27.820648 -17.490143 -75.900276
27.839577 -16.476784 -75.892227
27.853561 -16.00057 -75.897507
27.863485 -15.513203 -75.901169
27.87319 -14.547488 -75.899078
27.858047 -14.071016 -75.903267
27.837093 -13.589785 -75.902115
27.812771 -13.103808 -75.901527
27.778727 -12.611817 -75.903946
27.752998 -12.118414 -75.904526
27.770943 -11.238072 -75.904175
27.803459 -10.390434 -75.901978
27.816624 -9.9178772 -75.899551
27.803297 -9.7619677 -75.91066
27.827742 -8.9655218 -75.904686
27.820475 -8.4811287 -75.906181
27.814686 -7.9908843 -75.908173
27.801558 -7.4968719 -75.912933
27.875437 -6.8107786 -75.889336
27.867102 -6.5020242 -75.915298
27.930571 -6.0024619 -75.915741
27.970757 -5.5088778 -75.914948
27.990192 -5.0190663 -75.914368
28.027201 -4.5184679 -75.913277
28.096441 -3.9097745 -75.90683
28.104528 -3.4198308 -75.909042
28.111261 -2.4425423 -75.911339
28.081142 -1.9530691 -75.912003
28.022345 -1.464305 -75.911247
28.147217 3.5181608 -75.904915
28.106516 4.0223341 -75.90049
28.119356 4.3973341 -75.918373
28.086458 4.8832097 -75.919731
28.015139 5.5169206 -75.904602
27.964865 6.0185127 -75.908592
27.946636 6.3192735 -75.917458
27.91256 6.7960396 -75.913918
27.90745 7.2629499 -75.911781
27.847115 8.2560949 -75.912285
27.878258 8.7646856 -75.913734
27.928047 8.9618921 -75.912987
27.962717 9.7669086 -75.907135
27.983761 10.25983 -75.910484
27.937456 11.603065 -75.90699
27.876978 12.100794 -75.909462
27.903307 12.212028 -75.913033
27.882311 12.693471 -75.912666
27.785725 14.00606 -75.913841
27.807648 14.078884 -75.91346
27.800131 15.011332 -75.918823
27.826147 15.511765 -75.915863
27.816557 16.508883 -75.91449
27.84206 16.469923 -75.913277
27.878899 16.919447 -75.912041
27.887339 18.536131 -75.898849
28.006495 19.024221 -75.910522
28.012852 18.849983 -75.9263
28.129553 -21.052961 -76.694778
28.032867 -20.586802 -76.697739
27.958527 -20.104422 -76.704994
27.858372 -18.4484 -76.691315
27.850922 -18.523359 -76.700829
27.855045 -17.487959 -76.695381
27.874266 -16.475595 -76.688904
27.832367 -16.507896 -76.707016
27.872673 -15.513596 -76.694588
27.88492 -14.548159 -76.693619
27.883165 -14.070112 -76.693466
27.840155 -13.589849 -76.694344
27.80698 -12.673025 -76.691437
27.776348 -12.200154 -76.691658
27.771156 -11.722377 -76.692574
27.767157 -11.238164 -76.694206
27.777727 -10.392446 -76.680138
27.765261 -10.258848 -76.702232
27.764044 -9.7633944 -76.703407
27.832224 -8.9677153 -76.688957
27.79796 -8.738327 -76.706902
27.921547 -6.8093433 -76.666779
27.958902 -6.3303294 -76.674004
28.009405 -5.8496675 -76.678818
27.994272 -5.5167007 -76.698219
28.02533 -5.024199 -76.694656
28.098667 -4.3934631 -76.68895
28.076134 -4.0214572 -76.693092
28.092869 -3.5225 -76.694786
28.132847 -2.9301636 -76.690399
28.128716 -2.4420609 -76.6912
28.093569 -1.9528812 -76.691589
27.982426 -0.97719675 -76.691299
27.986637 0.48872674 -76.690567
28.01976 0.97661388 -76.69091
28.185617 3.4279571 -76.695518
28.097677 4.0172524 -76.675438
28.095673 4.3957677 -76.697014
28.017118 5.0187745 -76.676025
28.019064 5.3600202 -76.69281
27.933903 6.0145655 -76.679321
27.890133 6.5126076 -76.680481
27.845955 7.0112686 -76.680969
27.882154 7.25774 -76.695679
27.876139 8.4805679 -76.684715
27.921778 8.963706 -76.686722
27.938591 9.438385 -76.687401
27.971745 9.9165506 -76.688576
27.963547 10.751076 -76.680771
27.908598 11.612735 -76.67028
27.85972 12.101659 -76.677689
27.903038 12.211501 -76.677048
27.835501 13.588872 -76.676964
27.853151 14.079709 -76.6754
27.836731 14.566431 -76.66523
27.838654 15.038568 -76.663177
27.829222 16.000576 -76.671532
27.814369 17.003729 -76.67215
27.818306 17.48987 -76.669891
27.808403 17.972481 -76.670517
27.840464 18.453188 -76.670532
27.925003 18.898994 -76.685478
28.073631 -21.060295 -77.353706
27.984301 -19.973507 -77.34864
27.956205 -20.088669 -77.35675
27.909533 -19.016762 -77.358566
27.881964 -17.9713 -77.357368
27.904074 -16.474432 -77.354645
27.873098 -15.998395 -77.3591
27.873573 -14.071364 -77.360481
27.843712 -14.036798 -77.373322
27.80065 -12.672519 -77.349945
27.766495 -12.609393 -77.374901
27.747879 -12.104718 -77.382561
27.724539 -11.614373 -77.392654
27.813005 -9.9246922 -77.349068
27.784674 -9.761879 -77.375107
27.826097 -8.966012 -77.36116
27.809065 -8.4814186 -77.366592
27.922894 -6.805903 -77.351578
27.924147 -6.5086765 -77.37439
27.958195 -6.0121117 -77.374809
28.026003 -5.3608322 -77.363113
28.053677 -4.8714232 -77.366257
28.095179 -4.3894391 -77.368835
28.140934 -3.9067204 -77.370056
28.135599 -3.5219128 -77.364738
28.157145 -2.931591 -77.372177
28.075937 -1.9513791 -77.372276
28.01095 -0.97694105 -77.37249
27.986897 -5.8807422e-05 -77.372849
27.990147 0.48867106 -77.37294
28.018953 0.97703081 -77.373756
28.027916 1.4636759 -77.374161
28.144686 2.4437404 -77.376839
28.147358 3.5101099 -77.361794
28.10788 4.0110559 -77.361778
28.065971 4.5138316 -77.360817
28.00466 5.0191088 -77.360069
27.951767 5.5192881 -77.363556
27.907824 6.0174971 -77.36657
27.874195 6.5108166 -77.365578
27.838722 7.0106125 -77.367111
27.861954 7.2596197 -77.389351
27.874828 8.4807329 -77.377876
27.910755 8.9628191 -77.379814
27.913643 9.767931 -77.369087
27.928623 10.259174 -77.372322
27.952698 10.751142 -77.374954
27.91445 11.609566 -77.376526
27.873508 12.100029 -77.37339
27.907415 12.211011 -77.374565
27.856371 13.166559 -77.367828
27.825581 14.077023 -77.373428
27.791908 15.01563 -77.378021
27.797771 15.511883 -77.377205
27.758076 16.494688 -77.378311
27.811882 16.479097 -77.375633
27.754286 18.010521 -77.377121
27.790464 17.971544 -77.37532
27.811422 18.452816 -77.369186
27.979755 19.500168 -77.376213
28.054607 -21.060938 -78.055832
28.016115 -20.583153 -78.057076
27.950041 -19.499361 -78.05484
27.91988 -18.442871 -78.056488
27.911631 -18.529022 -78.052338
27.871922 -16.503292 -78.049934
27.856819 -15.514886 -78.056068
27.879416 -14.554556 -78.047386
27.855713 -14.527085 -78.063416
27.840912 -13.58959 -78.056145
27.809172 -12.67866 -78.031197
27.800606 -12.203901 -78.040703
27.794445 -11.723937 -78.049423
27.810902 -11.238177 -78.055634
27.817442 -10.75139 -78.062149
27.845171 -9.917367 -78.03656
27.843517 -9.4424171 -78.044724
27.831423 -8.9664497 -78.04866
27.826994 -8.482111 -78.053062
27.850897 -7.9922009 -78.055367
27.875092 -7.4994397 -78.056534
27.958532 -6.3285127 -78.042107
27.989838 -5.8424792 -78.04483
28.021139 -5.3557067 -78.044891
28.058565 -4.8741798 -78.048431
28.06288 -4.5258603 -78.057526
28.094168 -4.0262623 -78.056488
28.130978 -3.526346 -78.057098
28.124813 -1.9527558 -78.051659
28.015244 -0.97637397 -78.053078
27.984264 0.48868027 -78.052353
28.063307 1.952175 -78.053459
28.144461 2.9356155 -78.058121
28.148933 3.4278669 -78.059235
28.0889 4.0078115 -78.035469
28.045862 4.5111818 -78.041122
27.980143 5.0179152 -78.040871
27.954926 5.3565693 -78.055229
27.897902 5.8380785 -78.05938
27.830976 6.5108647 -78.037308
27.843246 6.7927999 -78.063286
27.802849 7.992816 -78.045815
27.862869 8.4808016 -78.049416
27.889418 8.9621916 -78.051651
27.89719 9.4410152 -78.056007
27.900602 10.263392 -78.039413
27.916775 10.382382 -78.058891
27.928867 11.23725 -78.044655
27.875319 12.106211 -78.040115
27.898581 12.209399 -78.042732
27.918381 12.687043 -78.035126
27.823822 14.01283 -78.057487
27.831041 14.517213 -78.048332
27.85825 14.565446 -78.033623
27.837391 15.047899 -78.029282
27.771393 16.001249 -78.03672
27.796864 17.002726 -78.032486
27.834417 16.928972 -78.036667
27.78373 17.971245 -78.034309
27.802387 18.441017 -78.036842
28.223068 20.102898 -78.02166
27.96748 -19.973724 -78.814766
27.955893 -20.090153 -78.817406
27.935402 -19.020847 -78.816513
27.91227 -17.969553 -78.815613
27.88801 -16.947083 -78.811951
27.874208 -16.476212 -78.818634
27.839554 -16.509302 -78.826988
27.886757 -14.554266 -78.812325
27.865185 -14.075826 -78.818497
27.850122 -13.589298 -78.823936
27.827757 -12.683844 -78.795944
27.82308 -12.603339 -78.845222
27.857452 -11.722104 -78.815666
27.869551 -11.238367 -78.823883
27.876743 -10.751482 -78.832466
27.881153 -10.263721 -78.841599
27.884838 -9.4364719 -78.813293
27.828756 -9.2688313 -78.847176
27.8578 -8.7535372 -78.841843
27.873796 -7.4990349 -78.830322
27.938789 -6.8039503 -78.831116
27.943789 -6.5122833 -78.829987
28.026983 -5.8377318 -78.833908
28.024841 -5.5206747 -78.826706
28.092663 -4.8743982 -78.836136
28.076904 -4.5307989 -78.829315
28.128817 -4.0257149 -78.830505
28.171894 -3.5234368 -78.833221
28.06731 -1.463192 -78.833908
27.986565 -0.48880371 -78.833984
27.965866 0.48836619 -78.833961
27.977533 0.97723341 -78.834343
28.078028 2.4430668 -78.838982
28.044809 3.5093539 -78.830505
28.054808 3.9110281 -78.836258
28.016216 4.3972254 -78.835129
27.964947 4.8793855 -78.835884
27.861603 5.5118656 -78.833488
27.826048 6.006916 -78.831085
27.832243 6.3193169 -78.84185
27.797886 6.7949338 -78.850586
27.737175 7.5018635 -78.828163
27.762926 7.9928055 -78.832344
27.788225 8.4792366 -78.837608
27.805956 8.9637785 -78.841827
27.832966 9.7705669 -78.82341
27.861801 9.91362 -78.855385
27.865417 10.75325 -78.833244
27.888329 11.237108 -78.837509
27.870516 12.110894 -78.834045
27.893795 12.610229 -78.833267
27.910683 13.101213 -78.83622
27.930601 13.145409 -78.836578
27.893541 14.08152 -78.836815
27.839092 15.013033 -78.836594
27.796303 15.50846 -78.837074
27.794107 16.002317 -78.836716
27.796066 16.484686 -78.838066
27.787018 16.948471 -78.838005
27.746904 18.529709 -78.825981
27.78347 18.444864 -78.840599
27.840645 18.899368 -78.847527
27.981524 -20.429018 -79.510277
27.954363 -20.583626 -79.522415
27.949692 -20.096659 -79.531937
27.919106 -18.438417 -79.50798
27.890476 -17.970261 -79.51429
27.852655 -16.999983 -79.526421
27.853237 -16.000471 -79.514778
27.830854 -15.512475 -79.520424
27.819233 -15.017583 -79.525734
27.877836 -14.077394 -79.511497
27.86104 -14.013469 -79.545792
27.881981 -13.096066 -79.523987
27.914614 -12.204756 -79.501022
27.920359 -11.722915 -79.506264
27.938398 -11.238911 -79.511703
27.934265 -10.750971 -79.519562
27.95759 -9.4331741 -79.498741
27.91618 -9.273448 -79.533821
27.917145 -8.4822111 -79.513527
27.873379 -7.4995947 -79.51619
27.90073 -7.0069556 -79.513893
27.928465 -6.5122242 -79.509773
27.973494 -6.0179458 -79.510971
28.060844 -5.3589997 -79.524475
28.060392 -5.0232544 -79.509743
28.077078 -4.530673 -79.509705
28.119349 -4.0251417 -79.506355
28.184101 -3.4216392 -79.52079
28.156057 -2.4419522 -79.518929
28.042133 -0.97623783 -79.514442
27.949396 -0.0012185366 -79.513542
27.927418 0.48803133 -79.513016
28.031542 1.9538175 -79.513687
28.040276 2.9307578 -79.513382
28.032867 3.4189172 -79.51088
28.018808 3.9072781 -79.509323
27.983934 4.3923006 -79.509392
27.953966 4.8796697 -79.506897
27.906681 5.35989 -79.506775
27.827261 5.9965978 -79.513603
27.780119 6.4977508 -79.508186
27.792788 6.8014026 -79.514244
27.761415 7.2693157 -79.513725
27.753384 8.4787903 -79.508575
27.755445 9.2717819 -79.491486
27.776495 9.7752647 -79.498856
27.810389 10.269225 -79.502663
27.830338 10.373461 -79.509293
27.851812 11.619387 -79.494362
27.866348 12.119649 -79.506126
27.912466 12.199529 -79.499245
27.92065 12.675126 -79.496826
27.92938 13.149424 -79.498207
27.866306 14.510617 -79.504204
27.865463 15.011802 -79.500076
27.829273 15.510037 -79.49823
27.831581 16.003239 -79.497444
27.823759 16.48513 -79.492432
27.78606 17.489359 -79.497139
27.781397 17.972414 -79.494476
27.830658 19.011826 -79.492935
27.965069 19.502205 -79.492332
27.904764 -20.43689 -80.27079
27.908504 -19.500048 -80.27594
27.875502 -17.970594 -80.274704
27.839497 -17.48913 -80.283028
27.861448 -17.00061 -80.289497
27.872564 -16.504246 -80.29937
27.85148 -15.514154 -80.286819
27.884966 -14.557136 -80.268753
27.912264 -14.080898 -80.276604
27.892336 -14.012239 -80.310646
27.971655 -12.601267 -80.291977
27.99131 -11.725243 -80.281639
27.990349 -11.239327 -80.28434
28.002172 -10.751065 -80.288177
28.053705 -9.9029741 -80.27504
28.021656 -9.4289351 -80.278008
27.974998 -9.2772608 -80.305702
27.937717 -8.7677355 -80.306931
27.924156 -6.7981162 -80.301468
27.911806 -6.511703 -80.287376
27.990648 -5.8393345 -80.301094
27.999788 -5.5217781 -80.286896
28.039154 -5.0227246 -80.287773
28.051657 -4.5304298 -80.283279
28.121965 -3.9065826 -80.300476
28.153801 -3.4208419 -80.299225
28.134394 -2.4419432 -80.297318
28.122328 -1.9533126 -80.296379
28.023167 -0.97656882 -80.295532
27.983812 -0.48899093 -80.295341
27.943106 -0.001598118 -80.294998
27.949804 0.97755963 -80.295784
27.966669 1.4653372 -80.296043
27.987267 3.4169295 -80.298973
27.968243 3.9037983 -80.298149
27.942987 4.3895888 -80.29673
27.915894 4.8751988 -80.296104
27.864462 5.5051551 -80.301956
27.868456 5.8484302 -80.29525
27.832222 6.3306518 -80.292267
27.779154 6.8094826 -80.293663
27.714956 7.4958715 -80.297066
27.705917 7.9899793 -80.29718
27.748222 8.4788103 -80.297447
27.750687 8.9614487 -80.296944
27.763733 9.7809553 -80.294258
27.791868 10.270737 -80.2957
27.829739 10.368175 -80.298096
27.883909 11.236435 -80.29731
27.894258 11.719638 -80.295326
27.901173 12.610329 -80.300552
27.927813 12.677417 -80.295837
27.912413 13.590147 -80.298058
27.908886 14.079988 -80.296959
27.878782 15.009371 -80.299896
27.867764 15.509914 -80.298058
27.822592 16.489508 -80.301804
27.839859 16.480818 -80.295235
27.831631 16.953554 -80.291534
27.787216 17.973701 -80.297256
27.813292 18.455355 -80.296165
28.362757 20.088993 -80.302612
27.893616 -19.969828 -80.978111
27.889339 -19.50083 -80.978409
27.912571 -19.021841 -80.978676
27.869883 -18.521929 -80.98024
27.877407 -16.958698 -80.970459
27.890495 -16.478664 -80.969238
27.85482 -16.496302 -80.993416
27.915174 -15.027802 -80.960358
27.902138 -15.024168 -80.985435
27.954277 -14.078906 -80.971497
27.967806 -13.591279 -80.976921
28.013672 -12.687851 -80.963593
28.006323 -12.606044 -80.982697
28.042303 -11.726308 -80.977509
28.030104 -11.611423 -80.9814
28.050352 -10.750913 -80.977921
28.018585 -9.7704506 -80.981216
27.971924 -9.2800026 -80.980186
27.939186 -8.7716026 -80.985283
27.911095 -7.9939718 -80.977158
27.96006 -6.3165054 -80.98423
27.987085 -5.8352489 -80.986275
28.009382 -5.3539004 -80.986786
27.999985 -5.0263715 -80.971741
28.054947 -4.390398 -80.980705
28.065834 -4.0214176 -80.970703
28.122034 -3.4200428 -80.981377
28.126158 -2.9315484 -80.981911
28.059801 -1.4643242 -80.977409
28.01289 -0.97665191 -80.976051
27.982147 0.97718912 -80.9748
28.022049 2.9300201 -80.974411
27.985922 3.5186889 -80.97155
27.976402 3.9024944 -80.974014
27.932028 4.5176854 -80.971123
27.907372 5.0129395 -80.969231
27.897709 5.3575883 -80.974251
27.859781 5.999507 -80.969315
27.834171 6.3281331 -80.971512
27.75206 6.9988089 -80.974556
27.729589 7.4950995 -80.974747
27.742626 7.9903331 -80.971565
27.740433 8.7746658 -80.990929
27.783478 8.9608374 -80.964905
27.78129 9.4351873 -80.959724
27.822035 10.271151 -80.972496
27.852257 11.636173 -80.976036
27.879932 11.717379 -80.963654
27.913391 12.608016 -80.967171
27.938452 13.590857 -80.962051
27.926983 14.514111 -80.965981
27.958706 14.568926 -80.956413
27.87936 15.51101 -80.960793
27.819586 16.490345 -80.965843
27.815903 16.994204 -80.961914
27.798122 17.485035 -80.957031
27.775463 17.975489 -80.955879
27.835543 18.461668 -80.956985
27.907953 18.928352 -80.963264
27.905148 -20.426077 -81.624611
27.913235 -19.976034 -81.630753
27.905378 -20.100338 -81.645012
27.933681 -19.019543 -81.640907
27.908325 -17.970695 -81.636864
27.923349 -16.481197 -81.634659
27.927019 -16.002851 -81.640419
27.930738 -15.513992 -81.644905
27.948444 -14.551501 -81.635681
27.969692 -14.076222 -81.643814
27.948025 -14.021968 -81.645798
27.988358 -13.100057 -81.64682
28.003748 -12.606726 -81.646606
28.038818 -11.727647 -81.646393
28.028593 -11.608868 -81.64901
28.025972 -9.7720833 -81.650131
28.006657 -8.9576111 -81.647758
27.959423 -8.4783106 -81.651466
27.886654 -7.0131063 -81.652283
27.889244 -6.5154877 -81.652008
27.906582 -6.0195704 -81.649109
27.96114 -5.3517313 -81.658699
27.976896 -4.8684473 -81.65873
28.035007 -4.3914485 -81.658485
28.034624 -4.0204287 -81.640221
28.079781 -3.5166128 -81.641464
28.11058 -2.9320967 -81.658279
28.099451 -2.4427335 -81.658821
28.061605 -1.952983 -81.657768
28.020922 -1.4645413 -81.657143
27.97723 0.4885633 -81.657051
28.002111 0.97717118 -81.656952
28.021166 1.9529693 -81.657974
28.004684 3.5179172 -81.654373
28.013561 3.9051096 -81.657951
27.976454 4.3900023 -81.658249
27.921139 5.0156054 -81.655556
27.937798 5.3608737 -81.662422
27.907486 5.8415847 -81.661339
27.878277 6.3226051 -81.658554
27.843405 6.8009434 -81.652061
27.770109 7.4983153 -81.662186
27.769711 7.9917202 -81.66127
27.778791 8.4785948 -81.657471
27.791105 8.9597692 -81.65345
27.799305 9.4390469 -81.648926
27.8333 9.9068766 -81.646523
27.848572 11.237453 -81.658478
27.866226 12.120663 -81.666626
27.906605 12.201224 -81.652977
27.939545 13.100052 -81.659798
27.939768 14.016787 -81.66333
27.96859 14.08138 -81.656303
27.932413 15.012002 -81.660057
27.956636 15.057268 -81.657921
27.820869 16.48283 -81.658661
27.808477 16.99012 -81.653259
27.840639 16.960287 -81.667648
27.801394 18.500662 -81.648087
27.898027 19.006643 -81.652756
27.921719 18.934496 -81.673744
27.901798 -20.58235 -82.450096
27.975039 -19.497498 -82.437874
27.949787 -18.443569 -82.43557
27.931114 -18.524481 -82.446083
27.910498 -16.965731 -82.429695
27.934401 -16.480124 -82.436386
27.932425 -16.000607 -82.438034
27.92701 -15.51405 -82.440498
27.948099 -14.550918 -82.434013
27.965027 -14.072475 -82.435707
27.951891 -14.022476 -82.450058
27.998446 -13.100379 -82.439575
28.011692 -12.605021 -82.440872
28.047075 -11.731218 -82.436882
28.031792 -11.600738 -82.441925
28.017319 -9.771884 -82.437996
27.985352 -8.9552965 -82.443192
27.917067 -8.4797182 -82.441032
27.851439 -7.5040393 -82.438568
27.869148 -6.3063049 -82.4431
27.888407 -5.8281035 -82.445702
27.88443 -5.5274196 -82.429703
27.911211 -5.0290384 -82.42794
27.960741 -4.5216846 -82.427238
28.003372 -4.0156522 -82.424355
28.013634 -3.5213752 -82.422569
28.032969 -2.9286594 -82.441673
28.04143 -2.4417763 -82.441391
28.006521 -1.465045 -82.438103
27.984097 0.48867494 -82.436195
28.035461 1.4648221 -82.434486
28.053865 1.9534352 -82.433189
28.067663 2.4421647 -82.434311
28.067081 3.418267 -82.432594
28.046904 4.0214581 -82.437141
28.03771 4.391305 -82.433342
28.022524 4.8780293 -82.431282
27.992289 5.3593359 -82.429718
27.923773 6.017117 -82.435379
27.900482 6.5124812 -82.435898
27.857319 7.5040145 -82.433922
27.811003 8.7683353 -82.439667
27.839197 8.9606438 -82.424156
27.848475 9.4347963 -82.420593
27.866251 9.9106197 -82.410767
27.878502 10.384969 -82.405472
27.868761 11.237775 -82.424515
27.874889 12.118763 -82.430275
27.906485 12.202202 -82.422752
27.939199 13.100092 -82.423508
27.954103 14.017711 -82.426476
27.955713 14.509543 -82.423225
27.919989 15.007578 -82.416527
27.945118 15.065044 -82.42746
27.848406 16.002735 -82.41803
27.846512 16.486946 -82.413719
27.83481 16.964703 -82.41423
27.805916 18.495646 -82.400024
27.826212 18.463812 -82.4245
28.49086 20.084965 -82.408073
27.882412 -21.064987 -83.10244
28.005556 -19.971462 -83.096275
27.99719 -19.499826 -83.1007
28.008928 -19.017172 -83.106743
27.976175 -18.524935 -83.117844
27.940773 -17.487318 -83.10627
27.922443 -16.995161 -83.110939
27.930069 -16.000982 -83.104599
27.928837 -15.513841 -83.108009
27.927139 -15.024869 -83.111496
27.943193 -14.074798 -83.107056
27.926546 -14.031791 -83.110008
27.990044 -13.099995 -83.109879
27.981627 -12.603115 -83.111412
27.978121 -12.107759 -83.111458
27.981136 -11.605924 -83.109215
28.004921 -10.751062 -83.112289
27.994329 -10.264293 -83.110527
27.957872 -9.4289455 -83.117897
27.926855 -9.2840939 -83.106873
27.864368 -8.4791822 -83.115074
27.820988 -7.9927449 -83.113991
27.815872 -7.5041485 -83.113167
27.831261 -6.7824483 -83.122818
27.847492 -6.3069887 -83.118385
27.860315 -5.8278418 -83.116753
27.867819 -5.3462 -83.117805
27.889858 -4.8659048 -83.116547
27.932997 -4.38591 -83.117088
27.968346 -3.9019914 -83.118591
27.993595 -3.4152877 -83.119408
28.018761 -2.4412279 -83.119919
27.996305 -1.4651977 -83.118607
27.991659 0.9770686 -83.119019
28.032869 1.4646397 -83.118919
28.07336 1.9536903 -83.118301
28.082266 3.5205746 -83.117172
28.088619 3.9080377 -83.11924
28.048462 4.524363 -83.121262
28.023415 5.0251322 -83.125175
28.0028 5.5198216 -83.127472
27.987761 5.8371019 -83.110039
27.93605 6.5151019 -83.124687
27.895641 7.0097432 -83.122887
27.850065 7.5037718 -83.123306
27.851332 8.4788418 -83.119705
27.855003 8.9607267 -83.118401
27.875017 9.7782879 -83.124207
27.898006 9.9018679 -83.115227
27.888332 10.752785 -83.122055
27.886799 11.238261 -83.120216
27.912945 11.724626 -83.12191
27.925434 12.208668 -83.121231
27.936176 12.682659 -83.127808
27.949572 13.590474 -83.12088
27.932833 14.07792 -83.119812
27.927671 14.569057 -83.115036
27.849619 15.509571 -83.122612
27.789391 16.474691 -83.107521
27.766487 16.980398 -83.11393
27.801134 16.969418 -83.13443
27.745476 17.975407 -83.121567
27.794085 18.463541 -83.126511
28.363831 20.081253 -83.11377
27.912098 -21.06362 -83.802841
28.008104 -20.585567 -83.810127
28.041197 -19.497723 -83.798714
28.023153 -19.015591 -83.804382
28.003262 -18.52103 -83.809723
27.923294 -16.505135 -83.804451
27.913454 -15.514226 -83.800583
27.920712 -14.549396 -83.80336
27.906258 -14.532337 -83.796204
27.941353 -13.589815 -83.801849
27.94573 -13.099566 -83.801315
27.957909 -11.723641 -83.800987
27.966732 -11.238829 -83.801567
27.966629 -9.9058428 -83.802208
27.935732 -9.7752571 -83.79834
27.90069 -9.2836037 -83.798134
27.847633 -8.4789286 -83.800545
27.813236 -7.9928293 -83.800476
27.850393 -6.3048377 -83.797989
27.868952 -5.8268113 -83.803581
27.872496 -5.5265517 -83.79631
27.920122 -4.8661032 -83.798393
27.953035 -4.3846016 -83.798157
27.948095 -4.0234137 -83.796791
28.005671 -2.928055 -83.798767
28.029163 -2.4416077 -83.799316
27.944324 0.0001552949 -83.797913
27.947786 0.48940402 -83.797935
27.996931 0.97698861 -83.798065
28.065781 1.9537054 -83.79808
28.085892 2.442754 -83.797234
28.088671 2.9310651 -83.795639
28.083967 3.5170393 -83.793732
28.043232 4.024879 -83.797638
28.023184 4.5304694 -83.801613
28.022287 4.8689413 -83.788567
27.99958 5.5216856 -83.799171
27.986238 6.0180035 -83.797325
27.987932 6.3186846 -83.784302
27.950665 6.7951002 -83.783981
27.86587 7.5034113 -83.794785
27.868889 7.9933853 -83.793053
27.859264 8.4798899 -83.791153
27.859648 9.2779999 -83.795197
27.899857 9.4300852 -83.786057
27.884888 10.267082 -83.789795
27.901793 10.75164 -83.790504
27.893473 11.609295 -83.799774
27.912573 12.111068 -83.79023
27.919821 12.60631 -83.789101
27.930267 13.590001 -83.785652
27.886177 14.517817 -83.792206
27.908945 14.564892 -83.777641
27.806265 15.506481 -83.784988
27.778267 16.002743 -83.782059
27.76985 16.492832 -83.7798
27.707369 17.479414 -83.777763
27.716244 17.974493 -83.780342
27.769352 18.465998 -83.785378
27.930458 19.501583 -83.779869
28.091242 -20.412319 -84.428932
28.049725 -20.097443 -84.473763
28.046993 -19.014715 -84.465797
28.019447 -18.521214 -84.472679
27.984653 -17.487339 -84.464607
27.970432 -16.472395 -84.462204
27.946291 -16.512072 -84.462646
27.9151 -15.514551 -84.466454
27.912125 -14.551217 -84.473068
27.926304 -14.072268 -84.470612
27.965363 -12.205173 -84.476837
27.937775 -11.72417 -84.474533
27.930717 -11.23862 -84.472755
27.947344 -10.752169 -84.471733
27.9238 -10.265343 -84.471771
27.92433 -9.4353981 -84.472641
27.889187 -8.9591761 -84.470535
27.86656 -8.4790354 -84.472931
27.839674 -7.9930258 -84.475334
27.830408 -7.0112028 -84.476807
27.850948 -6.3050618 -84.465668
27.894268 -5.8289843 -84.466995
27.902977 -5.522985 -84.483963
27.930384 -5.024075 -84.484726
27.976908 -4.3853736 -84.473289
27.967239 -4.0288563 -84.479019
28.024597 -1.9533063 -84.478233
28.014767 -1.4651507 -84.478539
27.970415 -0.97732818 -84.479286
27.953115 0.48903018 -84.479202
28.04973 2.4419196 -84.48101
28.067862 3.418015 -84.482559
28.058395 3.9046116 -84.481926
28.01368 4.5309296 -84.478951
28.018366 4.8689427 -84.4814
27.980787 5.5232015 -84.480934
27.981728 5.8375654 -84.478539
27.92647 6.512979 -84.484627
27.890867 7.0105114 -84.483772
27.877394 8.4797421 -84.478958
27.881474 8.9622803 -84.476128
27.877211 9.775116 -84.489479
27.920549 9.9078798 -84.479942
27.933611 10.752178 -84.482231
27.93158 11.238358 -84.480789
27.927038 12.109753 -84.494148
27.958076 12.206899 -84.469345
27.909349 13.589859 -84.481331
27.880051 14.079125 -84.478012
27.843494 15.006805 -84.483101
27.799021 15.5071 -84.482979
27.767607 16.002323 -84.481827
27.751606 16.49386 -84.478134
27.671728 17.474174 -84.481567
27.674538 17.97303 -84.482292
27.704395 18.462574 -84.485725
28.134445 20.070639 -84.470436
28.00922 -21.061724 -85.161812
28.089842 -19.965405 -85.149605
28.06806 -20.09638 -85.176048
28.033619 -18.434818 -85.146591
28.02173 -18.528053 -85.17556
27.945448 -15.997069 -85.165123
27.939936 -15.51407 -85.162643
27.931889 -15.022555 -85.162628
27.916594 -14.534089 -85.155304
27.90185 -13.590373 -85.163216
27.909435 -12.682253 -85.173431
27.906487 -12.205377 -85.172096
27.911104 -11.726182 -85.167709
27.896704 -11.238933 -85.163628
27.910883 -10.752337 -85.16185
27.914421 -9.9151459 -85.159767
27.911518 -9.4389114 -85.160858
27.878521 -9.2709188 -85.157768
27.86219 -8.7671556 -85.158745
27.881046 -7.9935455 -85.162086
27.855486 -7.5032797 -85.16626
27.901167 -6.5188823 -85.169891
27.943077 -5.8278565 -85.150452
27.941305 -5.5245118 -85.170219
27.97397 -4.8660259 -85.158607
27.95507 -4.5369582 -85.17025
28.000185 -3.8988338 -85.158318
28.022806 -3.4140399 -85.158585
28.038633 -1.9536115 -85.160759
27.967989 -0.97746843 -85.160553
27.948057 0.488974 -85.159454
27.958044 0.9777512 -85.159569
28.007015 1.9533833 -85.160858
28.031298 3.4170904 -85.162636
28.018131 3.9021158 -85.161179
27.965147 4.5313411 -85.155121
27.959097 5.0271378 -85.152626
27.9746 5.3514295 -85.163452
27.929684 6.019835 -85.156418
27.953218 6.3154974 -85.156265
27.885164 7.0114202 -85.158737
27.868454 7.5044351 -85.158165
27.873943 8.7641096 -85.167603
27.883524 9.2710037 -85.160049
27.920145 9.437149 -85.151581
27.926069 10.265043 -85.154716
27.941397 10.378237 -85.144859
27.924835 11.615126 -85.165382
27.929132 12.115534 -85.163956
27.945261 12.204131 -85.139717
27.952843 12.679982 -85.140617
27.883904 14.010476 -85.165977
27.862217 14.501793 -85.1567
27.881971 14.571538 -85.143051
27.809433 15.506419 -85.1465
27.775034 16.002064 -85.145805
27.759712 16.494326 -85.144478
27.689514 17.470821 -85.145897
27.670517 17.972769 -85.142944
27.7008 19.003168 -85.138008
27.711061 18.943874 -85.14312
28.078493 -20.580328 -85.827415
28.043684 -19.497467 -85.822113
28.02478 -19.01527 -85.829094
28.018333 -17.962133 -85.823784
27.981653 -16.465014 -85.823891
27.956757 -15.995555 -85.828049
27.932503 -15.514719 -85.829529
27.911173 -14.07334 -85.835762
27.877996 -12.68143 -85.847694
27.869457 -12.605829 -85.824409
27.882364 -11.726925 -85.839737
27.883242 -11.238796 -85.835976
27.907202 -10.262596 -85.83432
27.93569 -9.4407053 -85.831131
27.91861 -9.268115 -85.841362
27.90291 -8.7622938 -85.849937
27.945763 -7.5045929 -85.839203
27.977785 -6.3036456 -85.821358
27.990255 -5.8270564 -85.82563
27.996208 -5.3463941 -85.830338
28.001282 -4.8642497 -85.834244
27.99214 -4.5373812 -85.840881
28.01082 -4.032433 -85.840721
28.044395 -2.9279757 -85.838051
28.023256 -2.4402473 -85.839958
28.016977 -1.9529387 -85.841393
27.981077 -0.97722524 -85.841087
27.930702 -0.00050719775 -85.840996
27.936602 0.48917025 -85.840828
27.939436 0.97825825 -85.841042
27.976585 1.4653418 -85.842209
28.009535 1.9541634 -85.843178
27.993757 2.441608 -85.843735
27.98181 3.4153028 -85.845062
27.961115 3.900157 -85.845642
27.949474 4.3832436 -85.844704
27.937088 5.0240211 -85.834244
27.930794 5.3503132 -85.845551
27.916086 5.8295026 -85.841415
27.913427 6.3074465 -85.839882
27.892586 7.0116425 -85.844261
27.890556 7.9936137 -85.842888
27.893955 8.764452 -85.850235
27.900158 9.2696409 -85.849808
27.936697 9.4397211 -85.833412
27.949373 10.264748 -85.84861
27.928909 11.617926 -85.854874
27.95858 11.723488 -85.836319
27.973263 12.203669 -85.832512
27.936508 13.100224 -85.846664
27.937031 13.590659 -85.842384
27.904449 14.501457 -85.85273
27.920134 14.576819 -85.832062
27.892361 15.071021 -85.829254
27.802235 16.00383 -85.843964
27.735672 16.972374 -85.839897
27.765205 16.976049 -85.845001
