ply
format ascii 1.0
comment PCL generated
element vertex 1515
property float x
property float y
property float z
element camera 0
property float view_px
property float view_py
property float view_pz
property float x_axisx
property float x_axisy
property float x_axisz
property float y_axisx
property float y_axisy
property float y_axisz
property float z_axisx
property float z_axisy
property float z_axisz
property float focal
property float scalex
property float scaley
property float centerx
property float centery
property int viewportx
property int viewporty
property float k1
property float k2
end_header
28.08967 -12.193468 -72.429634
28.052361 -12.115056 -72.402832
28.016327 -11.235773 -72.413055
27.971453 -10.26662 -72.408928
27.988604 -9.4219503 -72.411644
27.956837 -9.290472 -72.411102
27.988585 -8.4792109 -72.411392
27.95525 -8.2597666 -72.411903
27.938272 -6.7949758 -72.409592
27.941519 -6.3278747 -72.413025
27.97011 -5.8537726 -72.413025
28.005987 -5.3699131 -72.41584
28.042406 -4.8809109 -72.417282
28.079096 -4.3892722 -72.417938
28.129753 -3.9046946 -72.414703
28.149498 -3.5153649 -72.412743
28.24708 -3.0075381 -72.415802
28.275148 -2.5091538 -72.416435
28.28483 -2.0112565 -72.423363
28.228563 -1.5099027 -72.421516
28.244789 -0.97886401 -72.402802
28.149569 0.0020974742 -72.40361
28.110281 0.4908728 -72.403282
28.158888 1.9635535 -72.395889
28.183077 2.4565632 -72.393478
28.153931 2.9913759 -72.439445
28.135925 3.4897201 -72.435127
28.001633 4.4889536 -72.429161
27.963577 4.8856583 -72.394775
27.841587 5.4995122 -72.419495
27.826788 5.8434238 -72.394424
27.746702 6.4972439 -72.41526
27.729994 6.9960322 -72.411049
27.758135 7.2710886 -72.396248
27.778807 8.4795532 -72.401253
27.824957 9.2724123 -72.396362
27.847807 9.768755 -72.401779
27.868177 9.9188232 -72.399391
27.708067 12.078673 -72.410538
27.693359 12.585097 -72.405006
27.700283 12.696426 -72.390419
27.667213 13.584739 -72.395599
27.648966 14.074339 -72.394081
27.648098 14.557878 -72.396362
27.652706 15.030016 -72.395294
27.710453 16.000021 -72.391212
27.790363 17.000088 -72.398117
28.063768 -17.988064 -73.184723
27.973833 -16.988337 -73.167877
28.075012 -15.514361 -73.177567
28.126734 -14.549305 -73.207329
28.12734 -14.062784 -73.195953
28.113302 -14.039473 -73.156258
28.067726 -13.532057 -73.144653
28.060019 -12.61019 -73.173012
28.001696 -11.722013 -73.18602
27.980524 -11.237594 -73.183037
27.928114 -11.112942 -73.165451
27.965055 -10.265401 -73.181717
27.999731 -9.4207764 -73.180733
28.006207 -8.9545918 -73.178421
27.977774 -8.7800808 -73.189896
28.017092 -7.9969897 -73.181229
27.973249 -7.0102153 -73.186409
28.014004 -6.3271766 -73.180466
27.992437 -6.0089927 -73.184898
28.061861 -5.3650126 -73.190262
28.071468 -4.8787489 -73.187813
28.051926 -4.5239816 -73.187149
28.100096 -4.0153418 -73.194252
28.161003 -3.5080376 -73.196396
28.267521 -2.9449582 -73.180786
28.283152 -2.4517949 -73.18251
28.297977 -1.9640542 -73.180748
28.242371 -1.5036734 -73.205956
28.244366 -0.98188084 -73.179344
28.209087 -0.48985574 -73.180984
28.158968 0.49093518 -73.182396
28.190685 1.9626966 -73.175468
28.220055 2.4575067 -73.172775
28.176125 2.9880822 -73.221397
28.181311 3.4370594 -73.171394
28.092728 3.9907782 -73.222389
28.048641 4.4099541 -73.167831
27.979502 4.8920698 -73.16938
27.912018 5.3709698 -73.169701
27.840483 5.8490076 -73.175484
27.782341 6.492938 -73.202217
27.743437 6.9905238 -73.197762
27.758514 7.2813778 -73.179474
27.76865 7.9910216 -73.192024
27.801952 8.4798431 -73.189301
27.843002 8.9617844 -73.186325
27.86665 9.4397411 -73.185982
27.872101 10.259025 -73.190094
27.850891 11.238962 -73.190056
27.819231 11.729046 -73.187477
27.700762 12.588486 -73.198479
27.664518 13.173047 -73.18837
27.615398 14.519278 -73.199364
27.632156 15.017129 -73.196419
27.691885 16.000221 -73.19062
27.723961 16.475922 -73.19278
27.77099 16.943977 -73.183701
27.775448 17.966274 -73.191658
28.18865 -18.52825 -73.874641
27.98361 -17.487272 -73.871574
27.981768 -16.476662 -73.879288
27.950489 -16.504965 -73.866562
28.016499 -15.513486 -73.871864
28.081533 -14.546962 -73.896156
28.084272 -14.065196 -73.887527
28.063776 -13.588846 -73.877243
28.051188 -13.525126 -73.841309
28.007477 -12.203488 -73.885796
27.996199 -11.724034 -73.878311
27.995275 -11.238307 -73.873528
27.937248 -11.100407 -73.853874
28.036137 -9.9022255 -73.871361
28.02844 -9.4309921 -73.863281
28.00009 -9.2760563 -73.883354
28.003035 -8.7705526 -73.894615
28.032364 -8.2603664 -73.894318
28.049768 -7.5068913 -73.870506
28.035301 -7.0118666 -73.871506
28.045555 -6.3280277 -73.860275
28.060472 -5.8493199 -73.860847
28.043726 -5.513855 -73.87661
28.044317 -5.0178986 -73.88044
28.060429 -4.5186043 -73.87896
28.153894 -3.917305 -73.861954
28.232166 -3.4328022 -73.860909
28.29487 -2.9477172 -73.859619
28.284378 -2.5027893 -73.890671
28.283113 -2.0016725 -73.892563
28.290415 -1.474372 -73.857208
28.255713 -0.98208845 -73.858589
28.220219 0.49187204 -73.860771
28.235592 1.4741143 -73.855003
28.228071 1.9635987 -73.854248
28.192972 2.4965572 -73.906105
28.233896 2.9507403 -73.84848
28.215891 3.4428349 -73.847008
28.123241 3.9913023 -73.894585
28.108473 4.4116039 -73.849571
27.979939 4.9924817 -73.89135
27.903929 5.4890308 -73.888809
27.872971 5.8569241 -73.848465
27.788572 6.4878645 -73.879532
27.79771 6.8150792 -73.852577
27.76926 7.4931574 -73.868912
27.779549 7.9907689 -73.864212
27.811636 8.4799175 -73.862244
27.841511 8.9624538 -73.859192
27.890858 9.441 -73.853775
27.912058 10.259827 -73.862755
27.84446 11.72589 -73.856857
27.718391 12.582472 -73.864601
27.726898 12.702278 -73.849068
27.700874 13.173946 -73.845535
27.62834 14.073862 -73.855705
27.604525 14.557751 -73.854172
27.62718 15.033971 -73.855125
27.786804 17.0135 -73.851761
27.842001 17.492073 -73.851662
28.20722 -18.53256 -74.540298
27.949707 -16.991745 -74.535126
27.999683 -15.99463 -74.541725
27.996902 -15.51379 -74.53891
27.982414 -15.026559 -74.536392
28.003283 -14.539671 -74.531761
28.031128 -13.588653 -74.545998
27.976868 -12.205409 -74.559326
27.954201 -12.103138 -74.531006
27.990688 -11.238632 -74.545578
28.005108 -10.751047 -74.543594
28.052319 -9.9185591 -74.532333
28.050192 -9.4379025 -74.537453
28.067179 -8.9621305 -74.536728
28.034626 -8.7718992 -74.55809
28.047941 -8.265439 -74.558037
28.030067 -7.7530065 -74.557358
28.044254 -7.0124965 -74.547707
28.050606 -6.3298821 -74.538292
28.033766 -6.0123906 -74.552322
28.088568 -5.3718181 -74.53344
28.096294 -4.8815117 -74.534744
28.110859 -4.39714 -74.527878
28.181873 -3.913558 -74.530037
28.208912 -3.5055089 -74.570702
28.26268 -3.0038085 -74.566261
28.327192 -2.4595718 -74.537926
28.315603 -1.9671153 -74.534866
28.270571 -1.5063238 -74.584373
28.293615 -0.98141551 -74.535248
28.261457 -0.49044088 -74.538849
28.25086 0.0016636734 -74.541161
28.271708 0.9826135 -74.538979
28.275837 1.4731656 -74.536011
28.299028 1.9654779 -74.534248
28.250669 2.4966247 -74.581123
28.25668 2.9950588 -74.576424
28.237249 3.488492 -74.574997
28.211695 3.9350615 -74.537827
28.085983 4.489522 -74.567101
28.01627 4.9890418 -74.56385
27.970406 5.3835626 -74.543709
27.903257 5.8614612 -74.541069
27.822397 6.4914303 -74.56028
27.817127 6.8185287 -74.542976
27.785732 7.4931211 -74.557304
27.826725 8.7605782 -74.56842
27.857031 9.2680578 -74.564301
27.908312 9.4443617 -74.544388
27.896084 10.257778 -74.555824
27.899693 11.239172 -74.551544
27.864361 11.725924 -74.55072
27.805273 12.218535 -74.550102
27.689833 13.086802 -74.56089
27.67169 13.583308 -74.556229
27.648472 14.074547 -74.55175
27.626543 14.999718 -74.560776
27.665096 15.507745 -74.555199
27.747412 16.508085 -74.544907
27.80201 16.931318 -74.560219
28.13591 -17.956158 -75.225731
28.027281 -17.487288 -75.233139
27.963114 -16.994629 -75.229874
27.968163 -15.994948 -75.233765
27.952854 -15.513904 -75.232475
27.99958 -14.537024 -75.237961
27.986118 -14.541605 -75.228477
27.978308 -14.052764 -75.21965
27.926266 -12.605654 -75.22403
27.942595 -11.732333 -75.237396
27.9695 -11.242208 -75.23391
28.062078 -9.9179192 -75.221832
28.071205 -9.4394627 -75.219521
28.055496 -9.2719421 -75.23999
28.062471 -8.7700443 -75.237473
28.04697 -7.7454805 -75.244476
28.027342 -7.2399087 -75.24453
28.036961 -6.5131102 -75.237206
28.067875 -5.8543386 -75.211952
28.084543 -5.377017 -75.214577
28.070335 -5.011673 -75.244164
28.081791 -4.5104952 -75.244934
28.116421 -4.0122848 -75.251549
28.243671 -3.4296846 -75.216232
28.275309 -3.0020628 -75.252403
28.3416 -2.463088 -75.214912
28.332951 -1.9967251 -75.251938
28.33411 -1.4761394 -75.215874
28.314178 -0.98037261 -75.215645
28.289343 -0.48900783 -75.217682
28.329149 0.98282552 -75.213219
28.361719 1.4777917 -75.212257
28.371912 1.9728984 -75.212502
28.355146 2.4661386 -75.212135
28.34355 2.9621778 -75.214569
28.307419 3.4550543 -75.218102
28.248053 3.9433234 -75.218803
28.127754 4.4899459 -75.236488
28.10083 4.909306 -75.218155
28.02359 5.3909874 -75.219444
27.908676 5.9938545 -75.233658
27.887943 6.3412724 -75.214378
27.806936 6.9932184 -75.229858
27.834969 7.2825551 -75.206635
27.821558 7.9916797 -75.225937
27.838251 8.7643147 -75.239441
27.875725 9.2625093 -75.233955
27.884907 9.7643223 -75.233749
27.891317 10.257171 -75.227081
27.908802 11.239566 -75.219719
27.818584 12.212999 -75.21283
27.696438 14.076683 -75.215378
27.67458 14.565158 -75.212936
27.685163 15.049247 -75.205032
27.704042 15.999821 -75.214035
27.773327 17.004332 -75.21801
27.785942 17.495945 -75.212593
28.163906 -17.938135 -75.887222
28.080372 -17.484797 -75.897507
27.982252 -16.473049 -75.894432
27.969032 -15.9954 -75.898178
27.948099 -15.514448 -75.900421
27.953522 -14.537898 -75.903999
27.94978 -14.063429 -75.903893
27.946714 -13.587437 -75.903023
27.951452 -13.102667 -75.901466
27.916548 -12.604939 -75.90136
27.893307 -12.09687 -75.903839
27.949764 -11.243731 -75.905457
28.068401 -9.9260187 -75.891411
28.060898 -9.7628593 -75.911926
28.1026 -8.9645147 -75.892998
28.095945 -8.4803476 -75.898453
28.076042 -7.9965444 -75.902588
28.05232 -7.5066175 -75.906418
28.076691 -6.7988482 -75.872818
28.039577 -6.5146952 -75.915543
28.045982 -6.0123367 -75.919487
28.073931 -5.5112424 -75.917702
28.063171 -5.0132618 -75.919273
28.095901 -4.5081415 -75.920303
28.186747 -3.9158471 -75.900749
28.247393 -3.4312859 -75.898293
28.264599 -3.0086331 -75.919777
28.374567 -2.4681203 -75.901672
28.380173 -1.9770913 -75.903336
28.373432 -1.4773903 -75.899933
28.335102 -1.0045691 -75.929283
28.326546 -0.50707543 -75.931572
28.321608 -0.00095169706 -75.935707
28.378208 1.5010037 -75.928474
28.396276 2.0024402 -75.925468
28.383951 2.4987428 -75.925674
28.385597 2.9940026 -75.921883
28.330231 3.4915373 -75.922554
28.229143 3.9891825 -75.918854
28.206581 4.4333024 -75.906555
28.136681 4.9167752 -75.910667
28.015387 5.4939013 -75.913727
27.938313 5.9974742 -75.914787
27.903135 6.3436403 -75.909882
27.860212 6.8127384 -75.908546
27.85063 7.2767472 -75.90493
27.81658 8.7570457 -75.928696
27.861151 8.9639845 -75.909462
27.91824 10.256066 -75.914612
27.795723 12.098508 -75.919266
27.82403 12.210759 -75.906792
27.80106 12.690236 -75.902748
27.712694 14.076895 -75.911842
27.69556 14.998525 -75.927582
27.720856 15.505411 -75.920425
27.795687 16.93713 -75.900673
28.304848 -18.53611 -76.702667
28.121647 -17.482412 -76.692337
27.997976 -16.465134 -76.681702
27.96353 -16.503748 -76.70607
27.959644 -15.514627 -76.694405
27.954453 -14.536623 -76.690781
27.949831 -14.064646 -76.693199
27.949509 -13.587152 -76.693436
27.917149 -12.21201 -76.690254
27.900986 -11.732122 -76.691856
27.921452 -11.24122 -76.692589
27.993891 -10.257152 -76.697052
28.020473 -9.7624331 -76.700493
28.102787 -8.9674139 -76.679672
28.064344 -8.7596903 -76.711075
28.056213 -8.2581406 -76.725258
28.056681 -7.744504 -76.733582
28.118042 -6.8011513 -76.652802
28.118774 -6.3256769 -76.661964
28.124746 -5.8498654 -76.66523
28.105337 -5.5188208 -76.703445
28.106436 -5.0179105 -76.703049
28.190626 -4.4057984 -76.683182
28.174379 -4.010252 -76.699348
28.245411 -3.5124221 -76.698677
28.350155 -2.9536424 -76.684189
28.407991 -2.4718812 -76.682144
28.426521 -1.9791815 -76.68219
28.382551 -1.4977062 -76.70282
28.415827 -0.98727828 -76.681427
28.362389 -0.50200534 -76.716461
28.378351 -0.0017390348 -76.719925
28.455696 0.49477205 -76.674072
28.459812 0.98880363 -76.676048
28.420769 1.4981844 -76.705971
28.419733 1.9990201 -76.707115
28.402639 2.5014901 -76.70285
28.396805 2.9898694 -76.700027
28.377775 3.4708281 -76.68383
28.247486 3.98469 -76.690086
28.197859 4.4322143 -76.687332
28.065041 4.9899435 -76.687828
28.03705 5.3913765 -76.684486
27.912027 5.9902844 -76.68441
27.854456 6.4947152 -76.684418
27.806631 7.0009656 -76.684059
27.846361 7.2717524 -76.687576
27.835682 8.4807215 -76.683212
27.876995 8.9648952 -76.682495
27.912853 9.4468451 -76.678375
27.938246 9.9260464 -76.675636
27.904179 10.750208 -76.681854
27.848831 11.605934 -76.69062
27.788254 12.100241 -76.694733
27.832016 12.208695 -76.671829
27.748623 13.586267 -76.678276
27.754505 14.077555 -76.674171
27.72842 14.565053 -76.663666
27.740229 15.043428 -76.656891
27.736116 16.000505 -76.67263
27.715298 16.992792 -76.684074
27.676472 17.48645 -76.672661
27.593269 17.970993 -76.670959
28.235212 -17.928417 -77.340317
28.218855 -18.056984 -77.379509
28.058525 -16.452024 -77.343536
28.020056 -15.988187 -77.352821
27.998713 -16.020161 -77.375191
27.969093 -14.064823 -77.355545
27.925539 -14.04348 -77.378998
27.890928 -12.601026 -77.378891
27.879469 -12.08808 -77.384323
27.850033 -11.579157 -77.388863
27.903265 -11.072092 -77.390968
28.033766 -9.9403591 -77.331192
28.031506 -9.7610931 -77.38031
28.10708 -8.9631443 -77.345657
28.104189 -8.4829617 -77.35466
28.068268 -8.2526035 -77.393402
28.083302 -7.7389917 -77.396912
28.110033 -6.5199575 -77.373672
28.099697 -6.0197425 -77.375832
28.139029 -5.3670135 -77.356102
28.157263 -4.8822021 -77.359444
28.21459 -4.400794 -77.362526
28.278374 -3.9169192 -77.368484
28.293299 -3.514102 -77.370735
28.382399 -2.9582922 -77.365379
28.377052 -2.492873 -77.379906
28.440853 -1.977298 -77.362282
28.417217 -1.492462 -77.383812
28.469219 -0.99560034 -77.358185
28.442331 -0.49069056 -77.391068
28.490454 -2.138299e-05 -77.357803
28.484947 0.49919796 -77.359322
28.478752 0.99512565 -77.359146
28.47806 1.481511 -77.356842
28.441692 1.9993783 -77.389366
28.468868 2.482662 -77.36232
28.407822 2.9909685 -77.380394
28.353167 3.4841609 -77.377953
28.246244 3.9819844 -77.375908
28.162243 4.4832926 -77.376038
28.060648 4.9873662 -77.373932
27.957771 5.4867058 -77.371819
27.887571 5.9893045 -77.370346
27.839504 6.4905577 -77.368851
27.8106 6.9993811 -77.369186
27.834213 7.274724 -77.383736
27.854668 8.4811525 -77.37616
27.887323 8.964426 -77.376007
27.894579 9.761673 -77.375587
27.898916 10.256116 -77.376297
27.913321 10.750502 -77.376427
27.866722 11.607373 -77.395721
27.813288 12.09769 -77.384583
27.841623 12.211996 -77.368431
27.781103 13.167151 -77.358284
27.750553 14.076132 -77.372025
27.727852 15.006865 -77.391968
27.733173 15.505885 -77.383377
27.692354 16.468462 -77.39846
27.735109 16.482899 -77.368797
27.610067 17.973042 -77.377586
27.516544 18.460115 -77.368828
28.277517 -18.058348 -78.067482
28.200449 -17.569412 -78.075287
28.079021 -16.517399 -78.066414
28.022598 -15.512922 -78.055099
28.002438 -14.544131 -78.036362
27.965473 -14.531526 -78.072861
27.961042 -13.588264 -78.051811
27.941689 -12.213016 -78.025459
27.953194 -11.731751 -78.038727
27.968483 -11.241796 -78.048485
27.999575 -10.750712 -78.055725
28.113075 -9.4403086 -78.026184
28.120623 -8.9637985 -78.031433
28.140228 -8.484787 -78.039848
28.144451 -7.9987311 -78.047424
28.156105 -7.5092502 -78.051407
28.10696 -7.2321138 -78.075974
28.132429 -6.3143325 -78.036057
28.135017 -5.8451481 -78.035217
28.158552 -5.3593063 -78.037598
28.178337 -4.8833389 -78.045395
28.171328 -4.519464 -78.056343
28.217592 -4.0194807 -78.057785
28.266403 -3.5153246 -78.060936
28.348368 -3.0001774 -78.060478
28.403931 -2.4956274 -78.060303
28.462927 -1.9866902 -78.041794
28.451694 -1.4933512 -78.066162
28.487804 -0.99167573 -78.042511
28.459785 -0.49990171 -78.063759
28.522083 0.49659932 -78.044182
28.483372 0.99188465 -78.065804
28.47563 1.4990058 -78.061882
28.48184 1.9834257 -78.044716
28.438354 2.493886 -78.055077
28.42156 2.9835873 -78.051521
28.374422 3.4765399 -78.056488
28.239647 3.9781258 -78.047722
28.149355 4.4810705 -78.05117
28.043524 4.9852095 -78.051147
27.988779 5.3908482 -78.048019
27.892986 5.8673663 -78.052635
27.806723 6.4921618 -78.042458
27.818659 6.8101487 -78.055435
27.794777 7.9925065 -78.046555
27.85244 8.4809771 -78.047737
27.877068 8.9630213 -78.047646
27.893106 9.4454155 -78.047966
27.890421 10.259949 -78.045586
27.913418 10.390567 -78.044502
27.907322 11.237827 -78.042793
27.832785 12.102488 -78.05027
27.854813 12.210632 -78.035896
27.861134 12.69133 -78.025909
27.771597 14.510227 -78.05909
27.788809 14.563902 -78.030838
27.769646 15.048464 -78.020401
27.732355 16.000803 -78.036171
27.751162 16.994547 -78.048538
27.787203 16.932549 -78.021049
27.623772 17.973032 -78.034538
27.511641 18.455322 -78.03299
28.319181 -17.924976 -78.793823
28.146629 -16.448246 -78.804604
28.122665 -16.520578 -78.831566
28.085194 -16.023815 -78.832237
28.021669 -14.546805 -78.796196
28.007332 -14.072368 -78.806602
27.991997 -13.589587 -78.817627
27.980627 -12.602338 -78.843582
28.023495 -11.734038 -78.804871
28.046064 -11.246651 -78.812149
28.098663 -10.753328 -78.822052
28.134443 -10.259656 -78.830177
28.175179 -9.4347038 -78.800201
28.140896 -9.2712126 -78.839127
28.161013 -8.7716541 -78.839073
28.155811 -8.2643557 -78.842476
28.167723 -7.5092812 -78.827934
28.147188 -6.5218229 -78.830444
28.184114 -5.8396354 -78.833817
28.156136 -5.5252075 -78.828819
28.211781 -4.8826108 -78.836304
28.181719 -4.5219202 -78.830696
28.214605 -4.0159159 -78.833687
28.281078 -3.5099025 -78.837181
28.353012 -3.0021865 -78.836777
28.384527 -2.4927905 -78.834961
28.405624 -1.9892974 -78.837982
28.484285 -1.4926958 -78.826462
28.449581 -0.99393648 -78.844757
28.528799 -0.49625558 -78.823776
28.476082 -0.0041641123 -78.840561
28.530752 0.50250161 -78.831177
28.515894 0.99434936 -78.827927
28.457895 1.4931247 -78.841377
28.423672 1.9904515 -78.834488
28.439375 2.4874382 -78.839081
28.331566 2.9768083 -78.828682
28.264708 3.4786432 -78.834122
28.226353 3.9508109 -78.833191
28.143164 4.4313979 -78.832565
28.048317 4.911674 -78.832588
27.872545 5.4739046 -78.839157
27.818192 5.9769807 -78.839386
27.816027 6.3420286 -78.832077
27.793131 6.810194 -78.839699
27.747847 7.4994602 -78.832024
27.784203 7.9926882 -78.834457
27.805023 8.4795246 -78.836922
27.821295 8.964572 -78.838341
27.845415 9.7670774 -78.833656
27.872656 9.9179964 -78.843559
27.871143 10.75184 -78.835579
27.881405 11.237804 -78.836273
27.849482 12.108402 -78.84333
27.862827 12.607111 -78.838173
27.873373 13.100113 -78.839035
27.89929 13.145717 -78.824341
27.854141 14.081149 -78.833916
27.807764 15.011716 -78.845558
27.77586 15.505383 -78.841545
27.767412 16.002468 -78.835678
27.777433 16.489904 -78.829163
27.773184 16.957336 -78.821846
27.545792 18.462605 -78.835091
28.363825 -17.919516 -79.486481
28.364082 -18.048235 -79.54528
28.201431 -17.000301 -79.521095
28.128448 -15.98268 -79.499802
28.079449 -15.512082 -79.513985
28.017948 -15.020856 -79.525917
28.041531 -14.074899 -79.49942
28.021738 -14.027398 -79.558022
28.039127 -13.100154 -79.51989
28.080542 -12.210885 -79.484985
28.081686 -11.736915 -79.496857
28.115019 -11.250698 -79.503166
28.156157 -10.755274 -79.510048
28.144138 -10.577334 -79.564697
28.267881 -9.4288912 -79.483543
28.214481 -9.2734938 -79.527115
28.241037 -8.4749928 -79.506912
28.189226 -8.271822 -79.524704
28.1791 -7.5085449 -79.514954
28.165066 -7.0160508 -79.516228
28.145466 -6.5218158 -79.514542
28.13105 -6.0239139 -79.514366
28.195501 -5.3598576 -79.524002
28.171043 -5.0209823 -79.512878
28.17197 -4.5194097 -79.512634
28.194836 -4.011847 -79.515007
28.319878 -3.4432213 -79.51577
28.317381 -2.9939103 -79.516953
28.432768 -2.4824574 -79.515068
28.420546 -1.985245 -79.518898
28.460449 -1.4891231 -79.516418
28.523813 -0.99813443 -79.513466
28.465197 -0.50048661 -79.521194
28.509329 0.0065532029 -79.513405
28.505873 0.50205028 -79.513771
28.472048 0.99654824 -79.513885
28.436068 1.4872084 -79.51506
28.447989 1.9939924 -79.515839
28.347219 2.4769473 -79.51001
28.338154 2.9751046 -79.516365
28.271389 3.4588487 -79.511841
28.200466 3.9452 -79.511604
28.123798 4.4245071 -79.512131
28.033558 4.9076514 -79.508362
27.936831 5.3865499 -79.505386
27.820299 5.9701066 -79.516525
27.777441 6.4800849 -79.513756
27.795597 6.8182282 -79.507011
27.78927 7.2746658 -79.505638
27.746136 8.2666674 -79.49482
27.794874 8.4790125 -79.508926
27.793507 9.2654791 -79.503807
27.805 9.7711773 -79.506844
27.830086 10.266253 -79.508255
27.848295 10.379064 -79.496719
27.849024 11.60855 -79.515388
27.852301 12.112635 -79.517685
27.902903 12.202677 -79.492302
27.907429 12.6792 -79.485466
27.913715 13.148399 -79.486366
27.852108 14.509537 -79.515892
27.846149 15.013866 -79.506653
27.826288 15.507864 -79.501015
27.821884 16.004236 -79.495583
27.824615 16.49395 -79.486259
27.737789 17.482197 -79.500275
28.374462 -17.919811 -80.243805
28.237772 -16.999174 -80.283218
28.208166 -16.517601 -80.29966
28.109964 -15.511058 -80.275757
28.086035 -14.076716 -80.264267
28.067961 -14.029304 -80.31411
28.097418 -13.512629 -80.321938
28.134264 -12.604059 -80.292305
28.182098 -11.736021 -80.272255
28.196016 -11.252289 -80.28093
28.23308 -10.756849 -80.286049
28.331202 -9.4263659 -80.274323
28.299828 -9.27316 -80.295135
28.278992 -8.7771988 -80.298004
28.247959 -8.2754526 -80.30249
28.212513 -7.7689433 -80.297272
28.123898 -6.5218291 -80.291046
28.149075 -5.8402181 -80.302834
28.12645 -5.5221667 -80.289001
28.132734 -5.0164247 -80.291382
28.133156 -4.513382 -80.289436
28.23308 -3.9229622 -80.295074
28.297716 -3.4425933 -80.291832
28.303848 -2.995749 -80.297707
28.426685 -2.4813139 -80.292908
28.474365 -1.9890605 -80.294098
28.457087 -1.4883403 -80.298393
28.493326 -0.99324667 -80.293938
28.493162 -0.49311265 -80.295403
28.492126 0.0093938531 -80.300926
28.458141 0.99548727 -80.303452
28.433075 1.4894205 -80.305138
28.360748 1.9797966 -80.291725
28.322832 2.4739971 -80.291191
28.26428 2.9731297 -80.29348
28.215679 3.4559376 -80.302132
28.141691 3.9347703 -80.301201
28.055073 4.4168472 -80.298599
27.998968 4.8986282 -80.298508
27.893532 5.4797955 -80.299568
27.88291 5.8684711 -80.294807
27.83531 6.3468909 -80.288177
27.795336 6.8230181 -80.284058
27.753407 7.4952931 -80.301308
27.755234 7.9910707 -80.299217
27.796301 8.4789515 -80.296211
27.801596 8.9618139 -80.293831
27.814808 9.7749004 -80.30542
27.829155 10.266746 -80.303009
27.864681 10.37436 -80.288338
27.895998 11.236962 -80.296234
27.892534 11.722346 -80.291969
27.892008 12.606554 -80.305634
27.925175 12.681408 -80.288216
27.90843 13.590026 -80.297592
27.899916 14.07967 -80.294769
27.878431 15.007951 -80.305344
27.876793 15.509172 -80.299644
27.848059 16.467232 -80.310097
27.870256 16.492798 -80.290146
27.841537 16.973911 -80.28389
27.631477 18.475737 -80.294861
28.166151 -16.517122 -80.995598
28.094971 -15.023979 -80.983986
28.143034 -14.074354 -80.962456
28.167824 -13.590994 -80.970154
28.180614 -12.606279 -80.980606
28.244043 -11.733262 -80.972794
28.229925 -11.601486 -80.983162
28.263651 -10.756094 -80.975624
28.23525 -10.583708 -80.988304
28.30452 -9.7670927 -80.977463
28.284967 -9.274518 -80.976265
28.271988 -8.7770605 -80.977386
28.244652 -7.9877248 -80.974152
28.210787 -7.7747798 -80.986328
28.159622 -7.2634811 -80.989502
28.134045 -6.2972589 -80.994827
28.132715 -5.8402123 -80.992188
28.121616 -5.362988 -80.986061
28.089184 -5.0138478 -80.975151
28.155117 -4.4073191 -80.977592
28.157457 -4.0053039 -80.977501
28.281507 -3.4437342 -80.976212
28.360008 -2.9624829 -80.978081
28.384512 -2.4883091 -80.975266
28.434029 -1.9867464 -80.972763
28.494991 -1.4951571 -80.976021
28.502869 -0.99281859 -80.972916
28.450718 -0.50752729 -80.976524
28.463081 -0.0095668947 -80.975983
28.455698 0.49106178 -80.972427
28.502052 0.99849105 -80.9795
28.433361 1.4921345 -80.967628
28.38241 1.9838464 -80.973297
28.336855 2.475915 -80.975014
28.317165 2.971019 -80.974319
28.18355 3.4748299 -80.972618
28.132494 3.9324989 -80.974686
28.028639 4.4815402 -80.968491
27.958473 4.9824181 -80.968254
27.935505 5.3783832 -80.973038
27.866219 5.9833589 -80.970947
27.848179 6.3409257 -80.966965
27.776564 6.9929562 -80.976646
27.774889 7.4956102 -80.975983
27.799934 7.9918127 -80.971291
27.795177 8.7732658 -80.996681
27.836857 8.9611626 -80.962021
27.827522 9.4361734 -80.955162
27.85379 10.266517 -80.976021
27.852568 11.623203 -80.979851
27.879469 11.720301 -80.962486
27.897999 12.603239 -80.967628
27.932352 13.590726 -80.961914
27.926577 14.514307 -80.969543
27.95455 14.567176 -80.953812
27.902809 15.510257 -80.961319
27.855839 16.46859 -80.971024
27.83643 16.980083 -80.963486
27.777201 17.476244 -80.957893
27.69302 17.974661 -80.955765
27.652086 18.478205 -80.954857
28.420071 -17.905407 -81.618523
28.409498 -18.053867 -81.656761
28.181078 -15.506569 -81.638268
28.191132 -14.071933 -81.634888
28.167459 -14.031466 -81.654472
28.192261 -13.101441 -81.647034
28.198505 -12.607604 -81.648438
28.238117 -11.739279 -81.642723
28.22785 -11.596092 -81.651642
28.250641 -11.091464 -81.657578
28.2661 -10.588215 -81.657219
28.305155 -9.767868 -81.650711
28.320047 -8.9450397 -81.649643
28.307701 -8.471343 -81.653069
28.242111 -8.2742777 -81.649498
28.185432 -7.7755227 -81.64624
28.137436 -7.0157456 -81.653091
28.070723 -6.5238023 -81.652885
28.043457 -6.0244193 -81.650612
28.077053 -5.3638382 -81.657433
28.082235 -4.884872 -81.661766
28.13376 -4.4053516 -81.660645
28.129635 -4.0003462 -81.647926
28.219484 -3.499784 -81.651184
28.344471 -2.9616935 -81.653137
28.423246 -2.4815257 -81.65564
28.444822 -1.9895577 -81.656921
28.475523 -1.4913164 -81.659615
28.45285 -0.99656242 -81.648499
28.469463 -0.50207597 -81.647842
28.480242 -0.0089376178 -81.654846
28.520361 0.50736576 -81.650078
28.516928 1.0031396 -81.652565
28.453114 1.4895098 -81.653824
28.457819 1.9865501 -81.662674
28.35947 2.4817264 -81.650917
28.29653 2.9783773 -81.654289
28.195303 3.4747753 -81.655235
28.152578 3.9377828 -81.659302
28.078321 4.4158401 -81.658569
27.966793 4.986619 -81.658127
27.970444 5.3818998 -81.660004
27.930716 5.8604808 -81.65947
27.901083 6.3392415 -81.656883
27.869112 6.8165488 -81.648888
27.81926 7.4983277 -81.663246
27.833994 7.9928756 -81.660072
27.84429 8.4783411 -81.654839
27.856684 8.9598093 -81.650391
27.860777 9.4410725 -81.646332
27.884535 9.9109831 -81.643852
27.862185 11.237873 -81.657959
27.85943 12.111541 -81.668396
27.904461 12.206353 -81.652916
27.935671 13.099393 -81.659904
27.944942 14.020051 -81.663147
27.971298 14.078601 -81.656502
27.941877 15.012634 -81.661728
27.961325 15.055038 -81.653427
27.862951 16.460522 -81.666069
27.835224 16.973883 -81.660522
27.864067 16.980179 -81.658928
27.656532 18.41292 -81.655411
28.225031 -15.971191 -82.435059
28.188328 -15.506122 -82.435143
28.191504 -14.071305 -82.426483
28.17573 -14.030539 -82.450768
28.236782 -13.100715 -82.438385
28.238636 -12.608696 -82.440208
28.226408 -11.747079 -82.43129
28.220098 -11.590305 -82.443031
28.210588 -11.083352 -82.449783
28.23835 -10.597744 -82.459244
28.299809 -9.768261 -82.439316
28.316526 -8.9435587 -82.449654
28.257978 -8.4727726 -82.447464
28.215055 -8.2732496 -82.42762
28.15593 -7.5041199 -82.43882
28.10239 -7.2692575 -82.433212
28.050791 -6.2995481 -82.442612
28.044216 -5.8276114 -82.447365
28.012224 -5.5194364 -82.43132
28.01211 -5.0093141 -82.428207
28.058475 -4.4980631 -82.431007
28.104811 -3.9933791 -82.432915
28.184242 -3.5011578 -82.430344
28.32309 -2.9562309 -82.445168
28.392202 -2.4740283 -82.445816
28.439074 -1.9871976 -82.427307
28.462366 -1.4950624 -82.442909
28.431652 -0.99136496 -82.431374
28.465101 -0.49986839 -82.434326
28.513414 0.5038169 -82.439728
28.486721 0.99016976 -82.434479
28.498821 1.4955199 -82.435051
28.459038 1.9904375 -82.43129
28.40134 2.4842076 -82.434402
28.304697 2.979018 -82.431671
28.264168 3.4587085 -82.433846
28.161774 3.9819829 -82.43409
28.126671 4.4197993 -82.435776
28.077646 4.9026999 -82.432884
28.033531 5.3816104 -82.428596
27.927505 5.9985466 -82.43647
27.909548 6.5023437 -82.439056
27.910479 7.5037723 -82.433739
27.867302 8.2605209 -82.456429
27.888109 8.7649069 -82.44429
27.917122 8.9618807 -82.421959
27.916378 9.437109 -82.417999
27.917208 9.9158754 -82.407578
27.91231 10.394699 -82.402267
27.876266 11.238519 -82.42437
27.863159 12.107772 -82.432533
27.899698 12.208611 -82.419975
27.930368 13.098752 -82.423775
27.962044 14.020326 -82.427917
27.962994 14.514463 -82.423416
27.938911 15.009927 -82.417213
27.954828 15.061996 -82.425293
27.900732 16.008015 -82.417549
27.880808 16.497213 -82.411972
27.847628 16.983692 -82.408661
27.668137 18.422522 -82.410904
27.675776 18.481182 -82.414833
28.393284 -17.478235 -83.097832
28.295401 -16.996159 -83.105888
28.251625 -15.981192 -83.098885
28.224339 -15.507796 -83.103577
28.178154 -15.024082 -83.108971
28.188099 -14.065957 -83.100876
28.173008 -14.036453 -83.111946
28.216553 -13.099837 -83.108795
28.215849 -12.608115 -83.111534
28.179775 -12.104761 -83.114624
28.176577 -11.595895 -83.115303
28.224077 -10.751438 -83.11261
28.242619 -10.259408 -83.113319
28.253792 -9.4203615 -83.11911
28.227755 -9.2793474 -83.111046
28.176928 -8.4717407 -83.118568
28.137035 -7.9926562 -83.118263
28.091375 -7.504961 -83.115776
28.029697 -6.30092 -83.122482
28.018629 -5.8309293 -83.1166
28.007769 -5.3580608 -83.115822
28.007505 -4.8802342 -83.115807
28.057693 -4.4025078 -83.118248
28.136707 -3.9191885 -83.119049
28.209305 -3.4335825 -83.118752
28.259081 -2.9955673 -83.11515
28.400908 -2.4768205 -83.115562
28.429914 -1.9883385 -83.113876
28.473198 -1.4942942 -83.12088
28.46353 -0.99622482 -83.11364
28.499149 -0.49808922 -83.111656
28.505169 -0.0034486046 -83.112297
28.479891 0.49163994 -83.118431
28.480286 0.99557757 -83.11483
28.471914 1.4920976 -83.115585
28.44952 1.9907659 -83.115417
28.393032 2.4762785 -83.120461
28.328907 2.9799833 -83.120041
28.211254 3.4721465 -83.115318
28.186502 3.9424269 -83.123398
28.123146 4.4956365 -83.116287
28.07477 5.0086045 -83.124062
28.016748 5.5006957 -83.126953
28.005447 5.8581562 -83.108994
27.959272 6.5076246 -83.12542
27.926056 7.0052605 -83.124023
27.91918 7.5033278 -83.122322
27.926378 8.2594824 -83.134521
27.94142 8.4795055 -83.118446
27.936712 8.9624319 -83.116745
27.930862 9.7726955 -83.125656
27.949404 9.9086409 -83.111725
27.911619 10.751197 -83.121773
27.88755 11.239334 -83.120224
27.901619 11.728607 -83.121101
27.910063 12.214404 -83.121216
27.916765 12.689793 -83.128975
27.951557 13.590353 -83.121185
27.94124 14.077773 -83.121925
27.935957 14.565233 -83.119354
27.880365 15.509913 -83.121735
27.817717 16.457977 -83.113556
27.780771 16.966158 -83.11451
27.80636 16.980148 -83.130058
27.699635 17.974968 -83.121101
27.682714 18.478199 -83.124016
28.594603 -18.031322 -83.805557
28.445984 -17.538391 -83.810455
28.26796 -16.512384 -83.801918
28.217728 -15.509769 -83.801826
28.162682 -14.529304 -83.79969
28.181559 -13.583319 -83.799683
28.189381 -13.099414 -83.80117
28.169008 -13.025363 -83.803375
28.176464 -11.729535 -83.799629
28.174366 -11.245254 -83.802063
28.137537 -11.090298 -83.795456
28.180279 -9.771842 -83.800583
28.163128 -9.2845516 -83.799706
28.134504 -8.4689884 -83.802231
28.096361 -7.9914889 -83.80127
28.056562 -7.7659392 -83.793213
28.028706 -7.2666793 -83.79599
28.033443 -6.3035016 -83.799828
28.023449 -5.8315892 -83.800102
28.014561 -5.5200639 -83.799629
28.061543 -4.883924 -83.797508
28.10273 -4.4035001 -83.797844
28.106297 -3.9995561 -83.798439
28.185345 -3.4955742 -83.797699
28.318335 -2.9548135 -83.795357
28.425901 -2.476393 -83.79818
28.467661 -1.9919194 -83.796173
28.483418 -1.4930452 -83.793709
28.490334 -1.0017209 -83.790947
28.485857 -0.49875122 -83.788223
28.51539 0.00034963546 -83.802864
28.504379 0.49360731 -83.801285
28.493649 0.99702096 -83.799866
28.435783 1.4876803 -83.788475
28.442327 1.9917918 -83.800987
28.40152 2.4849365 -83.798668
28.323711 2.9762423 -83.796898
28.202482 3.4740074 -83.785728
28.135464 3.9820542 -83.793144
28.086821 4.5005169 -83.800079
28.097683 4.8896532 -83.788651
28.03775 5.5046668 -83.796722
28.011028 6.0071836 -83.796616
28.016121 6.3371282 -83.780678
27.990713 6.8114147 -83.779182
27.933914 7.5032606 -83.794724
27.960474 7.9947629 -83.792107
27.951935 8.4814873 -83.789307
27.937759 9.273345 -83.79451
27.9722 9.432806 -83.785385
27.926157 10.262867 -83.790001
27.924591 10.750433 -83.790688
27.882122 11.596671 -83.800636
27.88673 12.101048 -83.791069
27.893299 12.600298 -83.787979
27.895332 14.518572 -83.789406
27.910198 14.560166 -83.780579
27.819729 15.507051 -83.784958
27.793543 16.003515 -83.781998
27.780062 16.495243 -83.779678
27.702639 17.472517 -83.779816
27.67384 17.972939 -83.779587
27.650127 18.471201 -83.781738
28.447227 -17.469919 -84.460388
28.315912 -16.514116 -84.466782
28.221842 -15.507256 -84.46759
28.159103 -14.064446 -84.472115
28.124731 -14.03731 -84.461365
28.116463 -13.536633 -84.462151
28.200884 -12.200933 -84.478539
28.173687 -11.729188 -84.474411
28.154547 -11.245014 -84.474152
28.17005 -10.751266 -84.473396
28.145227 -10.261141 -84.472748
28.14905 -9.4234056 -84.472763
28.137529 -8.9436483 -84.469688
28.121307 -8.4667425 -84.472847
28.084736 -7.9902954 -84.473846
28.051933 -7.7743607 -84.472397
28.045834 -7.0153394 -84.4757
28.035757 -6.3055859 -84.464035
28.054001 -5.8318744 -84.4617
28.036657 -5.5191331 -84.481865
28.06156 -5.0099235 -84.483307
28.135429 -4.403933 -84.474785
28.155437 -4.0027666 -84.476227
28.249643 -3.5006046 -84.476921
28.302221 -2.9973748 -84.477585
28.397516 -2.4992797 -84.47673
28.509914 -1.9847437 -84.478409
28.526287 -1.4922071 -84.478432
28.519012 -0.99255699 -84.48204
28.464417 -0.49842539 -84.475838
28.449123 -0.0019632948 -84.473755
28.483227 0.49870846 -84.487106
28.429874 0.99219501 -84.466469
28.35866 1.9821242 -84.472015
28.256691 2.9678907 -84.46698
28.227367 3.4572821 -84.486893
28.149031 3.9315054 -84.48381
28.086697 4.5023761 -84.475044
28.086958 4.8901634 -84.483727
28.024168 5.5075135 -84.480743
28.039209 5.8538833 -84.474037
27.975967 6.5082192 -84.485474
27.946011 7.0065589 -84.484947
27.94821 8.2586517 -84.493576
27.97818 8.4811831 -84.476074
27.973013 8.9648037 -84.472839
27.941111 9.7699575 -84.490326
27.975977 9.9156713 -84.476074
27.958994 10.75113 -84.482109
27.929317 11.240197 -84.480759
27.898098 12.099306 -84.492798
27.928144 12.215391 -84.471649
27.900557 13.589786 -84.481606
27.872717 14.078048 -84.478989
27.830584 15.012069 -84.482971
27.807961 15.50803 -84.48307
27.778233 16.002781 -84.481583
27.748859 16.49312 -84.475365
27.661541 17.468317 -84.484734
27.605143 18.463253 -84.480545
28.604567 -18.03417 -85.161201
28.437243 -17.533237 -85.156242
28.272308 -15.968646 -85.166847
28.218096 -15.507034 -85.162766
28.170113 -15.024815 -85.163284
28.134253 -14.531933 -85.16143
28.137449 -13.58603 -85.167145
28.164885 -12.208753 -85.167435
28.148073 -11.731798 -85.166061
28.118179 -11.246582 -85.165596
28.127489 -10.751644 -85.16275
28.153086 -9.4244089 -85.161873
28.121159 -9.2789822 -85.158798
28.094786 -8.78936 -85.157852
28.1035 -7.9895978 -85.161003
28.069601 -7.5058088 -85.161629
28.038311 -7.2543931 -85.180618
28.079115 -6.5220289 -85.164665
28.101336 -5.8379221 -85.151108
28.090618 -5.5223427 -85.168686
28.144901 -4.8849468 -85.155258
28.122623 -4.5124798 -85.167549
28.221298 -3.9190161 -85.157433
28.282223 -3.4401774 -85.160187
28.310408 -2.9981177 -85.161057
28.39546 -2.4971139 -85.159355
28.493708 -1.9882437 -85.164436
28.459139 -1.497076 -85.157997
28.488871 -0.99002373 -85.163773
28.44735 -0.5026983 -85.156181
28.420071 -0.003314476 -85.15229
28.447803 0.50043023 -85.16468
28.424099 0.99220395 -85.1651
28.351143 1.4859653 -85.150833
28.344851 1.9861016 -85.171234
28.26899 2.4690614 -85.139465
28.224483 2.966975 -85.141342
28.19817 3.4475682 -85.165237
28.125631 3.9269345 -85.159775
28.037535 4.500206 -85.158295
28.020815 5.0064106 -85.155045
28.039877 5.3684168 -85.160072
27.979366 6.0106206 -85.157425
28.013807 6.3301344 -85.151817
27.954268 7.0081744 -85.158821
27.950764 7.5040832 -85.157143
27.953508 8.2578964 -85.186386
27.970354 8.760766 -85.169434
27.962635 9.2662239 -85.162498
27.994915 9.4424992 -85.148277
27.961327 10.260972 -85.155777
27.975088 10.391841 -85.143265
27.900269 11.599045 -85.163284
27.890818 12.100481 -85.161644
27.91312 12.213933 -85.143578
27.925213 12.689281 -85.142494
27.873068 14.01003 -85.163353
27.844986 14.507375 -85.15609
27.863178 14.56445 -85.143036
27.796337 15.50869 -85.147331
27.784203 16.002159 -85.145317
27.753891 16.492731 -85.141541
27.673666 17.469294 -85.149139
27.635544 17.970568 -85.143814
28.53075 -18.037533 -85.82766
28.259264 -15.971065 -85.832222
28.200821 -15.508372 -85.830635
28.18339 -15.524476 -85.828011
28.164862 -14.057097 -85.832733
28.150253 -14.042109 -85.83123
28.145521 -12.608608 -85.831696
28.114426 -11.734982 -85.837067
28.116684 -11.244774 -85.834473
28.085922 -11.092193 -85.830582
28.135757 -10.260991 -85.835609
28.182444 -9.4234152 -85.829346
28.162735 -9.2794847 -85.840454
28.136448 -8.7857418 -85.845703
28.118452 -8.2782984 -85.849327
28.135475 -7.5060925 -85.835159
28.113533 -7.2524967 -85.853989
28.157579 -6.3050284 -85.815804
28.147001 -5.835691 -85.821404
28.168398 -5.357667 -85.824722
28.170849 -4.8825231 -85.831474
28.156391 -4.5147657 -85.842339
28.202982 -4.0123806 -85.841408
28.239597 -3.5033717 -85.84211
28.354576 -2.9563377 -85.839714
28.410963 -2.4712296 -85.843582
28.459436 -1.9809437 -85.845001
28.434298 -1.4952533 -85.83696
28.472466 -0.98859864 -85.844566
28.432116 -0.50273371 -85.838982
28.437262 0.0043816227 -85.846184
28.409214 0.50103235 -85.849594
28.372841 0.99073786 -85.849617
28.357311 1.4885362 -85.850746
28.336346 1.9863583 -85.849792
28.277882 2.4739206 -85.848572
28.190599 2.9707048 -85.835754
28.177362 3.4443243 -85.845413
28.091249 3.9213104 -85.843559
28.046055 4.4030719 -85.841782
27.995327 5.0039353 -85.843575
27.984999 5.3671308 -85.84214
27.969641 5.8431683 -85.836792
27.969116 6.3191471 -85.83593
27.964138 7.0093799 -85.845436
27.986822 7.9952216 -85.840332
27.981699 8.7599936 -85.855629
27.972271 9.2638969 -85.854164
28.000631 9.4468298 -85.827225
27.977755 10.260745 -85.848831
27.926003 11.729359 -85.837173
27.934753 12.214656 -85.83532
27.906679 13.098434 -85.846863
27.915787 13.590219 -85.842812
27.876638 14.509144 -85.853508
27.894138 14.56846 -85.83223
27.865618 15.057235 -85.826126
27.793009 16.002375 -85.842926
27.722105 16.978664 -85.852852
27.762049 16.965195 -85.828995
27.669746 17.972734 -85.844017
27.659679 18.463928 -85.834358
28.446402 -18.045507 -86.522408
28.236065 -15.974129 -86.520844
28.193777 -15.505753 -86.522171
28.179276 -15.025587 -86.52401
28.154558 -14.056638 -86.520882
28.140993 -13.581831 -86.524765
28.117491 -13.101141 -86.523979
28.102409 -13.014447 -86.527527
28.102222 -12.107183 -86.525864
28.134609 -11.248004 -86.520958
28.139408 -10.752905 -86.522873
28.210146 -9.4326077 -86.499947
28.181391 -9.2739334 -86.534897
28.226549 -8.4714489 -86.498833
28.19537 -8.2775631 -86.550774
28.186249 -7.505662 -86.517273
28.169615 -7.0155692 -86.522423
28.14139 -6.023139 -86.528168
28.163101 -5.527348 -86.529198
28.160757 -5.0228014 -86.535049
28.154129 -4.5180421 -86.526558
28.216948 -3.9188154 -86.518921
28.260178 -3.4320874 -86.521744
28.293808 -3.0013735 -86.521835
28.339951 -2.4966207 -86.524445
28.397079 -1.9936053 -86.525612
28.400425 -1.4934962 -86.521919
28.442019 -0.98838699 -86.523743
28.449076 -0.49246064 -86.525513
28.383387 -0.013787738 -86.515205
28.355169 0.4887307 -86.516365
28.341343 0.98907137 -86.525307
28.344166 1.4902967 -86.522949
28.308676 1.9805949 -86.522034
28.261263 2.4701002 -86.519951
28.208466 2.9586289 -86.5187
28.110359 3.4840424 -86.521988
28.04689 3.9954526 -86.520058
27.998549 4.5019183 -86.525459
27.99272 4.8823714 -86.513031
27.913696 5.5100293 -86.524895
27.933516 5.8437052 -86.506554
27.939949 6.3191891 -86.507027
27.953024 6.7960501 -86.508659
27.960239 8.2560472 -86.529671
27.971832 8.764185 -86.533455
28.000883 8.9659681 -86.505547
27.999517 9.4448729 -86.495529
27.991602 10.259629 -86.520622
27.966822 10.750831 -86.514366
27.963812 11.240931 -86.509529
27.918585 12.101233 -86.523033
27.923447 12.599219 -86.515587
27.944981 12.688621 -86.497841
27.928503 13.590125 -86.50901
27.919607 14.50805 -86.516464
27.926138 14.571995 -86.495743
27.927849 15.057203 -86.489723
27.818781 16.979036 -86.514595
27.845325 16.969885 -86.483978
28.350435 -17.909491 -87.178619
28.303171 -17.466785 -87.1847
28.252333 -16.997871 -87.190376
28.172979 -15.025648 -87.193146
28.133169 -14.539526 -87.196152
28.144873 -13.583079 -87.189812
28.13456 -13.101025 -87.193504
28.135744 -11.734415 -87.189125
28.114237 -11.597705 -87.204178
28.130068 -11.088774 -87.202759
28.202223 -10.260743 -87.19651
28.232672 -9.7667198 -87.201149
28.292713 -8.960062 -87.16774
28.289951 -8.4730253 -87.174309
28.277122 -7.9886718 -87.183578
28.251959 -7.5041361 -87.189598
28.227734 -7.2675433 -87.230995
28.191265 -6.5241394 -87.20179
28.180946 -6.0253024 -87.205536
28.212534 -5.3558435 -87.182564
28.198185 -4.8717003 -87.18988
28.173887 -4.3930516 -87.197105
28.168695 -4.0159483 -87.206444
28.218105 -3.5073395 -87.210732
28.310673 -2.9506567 -87.199005
28.363701 -2.4659779 -87.198814
28.386442 -1.9757969 -87.20256
28.378874 -1.494038 -87.200096
28.418262 -0.98358721 -87.207115
28.40472 -0.50714463 -87.199417
28.387121 -0.011099608 -87.196762
28.392448 0.49690998 -87.208786
28.362915 0.99288017 -87.194328
28.369156 1.4893044 -87.206078
28.330511 1.9815068 -87.201431
28.275726 2.4692771 -87.201508
28.179876 2.9780762 -87.208382
28.142067 3.488416 -87.21067
28.101881 3.9222684 -87.201286
28.021021 4.3979464 -87.199615
27.966648 4.8798752 -87.198616
27.905499 5.5116587 -87.220695
27.926613 5.8383694 -87.193222
27.933863 6.3219609 -87.191818
27.940632 6.8002052 -87.199005
27.930727 7.7610683 -87.219032
27.968971 7.9939551 -87.203224
27.99247 8.4798059 -87.200035
28.000126 8.9648638 -87.197449
28.000175 9.4426994 -87.186859
27.995672 10.26035 -87.212082
27.987139 10.750682 -87.205292
27.978874 11.242299 -87.201385
27.954807 11.734112 -87.200272
27.945051 12.600448 -87.207146
27.945757 13.098827 -87.205658
27.957281 13.590589 -87.20433
27.944799 14.517503 -87.205307
27.960657 14.562185 -87.199295
27.946341 15.048374 -87.188667
27.887459 16.985563 -87.218636
27.825676 17.479643 -87.209793
27.795521 17.98101 -87.202057
28.315937 -17.912556 -87.87674
28.317083 -18.065834 -87.893776
28.205242 -16.51515 -87.887566
28.174921 -15.504861 -87.885033
28.148605 -15.026911 -87.887321
28.156057 -14.058223 -87.874596
28.143091 -14.044783 -87.899185
28.158472 -13.100872 -87.884384
28.136869 -12.10601 -87.893463
28.15168 -11.603276 -87.897949
28.160578 -11.087525 -87.900192
28.238537 -10.262073 -87.884003
28.289846 -9.7652731 -87.88842
28.345938 -8.9535999 -87.858368
28.31988 -8.7734108 -87.898438
28.276817 -8.2731543 -87.904739
28.279024 -7.7661848 -87.910995
28.272676 -7.0136099 -87.881897
28.228756 -6.5237188 -87.885468
28.207432 -6.0281992 -87.887939
28.195219 -5.5309343 -87.889755
28.197346 -5.0311866 -87.888969
28.181414 -4.5261898 -87.888527
28.195116 -4.0167685 -87.885406
28.221838 -3.510778 -87.881676
28.270529 -3.0060034 -87.880661
28.353447 -2.4659872 -87.886009
28.359587 -1.9959589 -87.88002
28.370695 -1.4984556 -87.8787
28.403236 -0.98852241 -87.888351
28.407478 -0.49010494 -87.887718
28.423445 0.0060743806 -87.886269
28.379375 0.48589244 -87.884209
28.374132 0.9935053 -87.879829
28.329054 1.9878842 -87.883842
28.292355 2.4740634 -87.887024
28.162037 3.4392874 -87.8806
28.096014 3.9192383 -87.87841
28.032927 4.3980842 -87.873474
27.970064 5.0136905 -87.891464
27.951199 5.5146894 -87.887917
27.962629 5.8445888 -87.867401
27.938511 6.5086184 -87.886551
27.958286 7.0108094 -87.883224
27.97328 7.505403 -87.879036
28.004124 7.9945979 -87.875725
28.024237 8.767642 -87.889374
28.057365 8.9609814 -87.868614
28.03664 9.4388342 -87.861015
27.985348 10.260306 -87.879189
28.011578 10.398209 -87.859711
27.90888 11.57261 -87.882233
27.92466 11.736094 -87.87133
27.933943 12.21695 -87.868866
27.956156 12.688128 -87.867737
27.971279 14.01861 -87.883453
27.962982 14.514011 -87.878777
27.94495 15.512856 -87.869461
27.939417 16.00663 -87.861969
27.905838 16.985296 -87.871391
28.306505 -17.905666 -88.547195
28.289974 -18.073109 -88.554489
28.209316 -16.519224 -88.556267
28.160831 -15.507627 -88.549622
28.16608 -14.061467 -88.535477
28.16321 -13.585309 -88.543152
28.168957 -13.100929 -88.553162
28.144918 -12.608348 -88.563828
28.188358 -11.727787 -88.541054
28.172579 -11.606516 -88.572662
28.255405 -10.761537 -88.549713
28.377474 -9.4461164 -88.532326
28.348574 -9.2706146 -88.566704
28.34111 -8.7731981 -88.570244
28.325876 -7.9877501 -88.554466
28.300077 -7.7715836 -88.573914
28.272747 -7.2696157 -88.573593
28.234777 -6.5239015 -88.561707
28.222784 -5.8168163 -88.554817
28.193264 -5.345664 -88.558464
28.177074 -4.8707538 -88.561157
28.186472 -4.391202 -88.566315
28.17613 -4.0203004 -88.558311
28.247108 -3.431119 -88.569336
28.289579 -2.9465458 -88.57312
28.338284 -2.4633365 -88.571823
28.389263 -1.9733006 -88.573387
28.418573 -1.4789749 -88.573166
28.434185 -0.98581171 -88.576035
28.427908 -0.49122944 -88.571655
28.425512 0.00027607442 -88.566444
28.432247 0.49659094 -88.56485
28.417507 0.989308 -88.561615
28.412212 1.4861716 -88.559883
28.359058 1.9857367 -88.570435
28.344488 2.4773552 -88.561165
28.28447 2.9623127 -88.560951
28.202513 3.441349 -88.558647
28.108715 4.0051594 -88.574638
28.064823 4.5103002 -88.568993
28.024797 5.0146704 -88.572304
28.042398 5.3609591 -88.55616
28.034729 5.8432317 -88.55513
27.992477 6.5132966 -88.571831
28.015869 6.8008151 -88.546272
28.004768 7.74616 -88.592583
28.04652 7.9963074 -88.563141
28.069096 8.4812155 -88.560471
28.046947 9.2720366 -88.575096
28.027941 9.7682304 -88.572922
28.046625 9.9152365 -88.555923
27.901354 11.569717 -88.567787
27.897198 12.09084 -88.570419
27.913067 12.600024 -88.567497
27.968609 12.682626 -88.56443
27.991152 14.022278 -88.568695
27.989714 14.519114 -88.571884
27.983561 15.018779 -88.570984
27.982025 15.513786 -88.566727
27.924135 16.463427 -88.578964
27.929245 16.983692 -88.574158
27.908148 17.484644 -88.568253
27.920975 17.986488 -88.561615
28.30617 -17.910742 -89.322136
28.281296 -18.070238 -89.370087
28.289879 -16.996065 -89.347107
28.217699 -15.974674 -89.334625
28.209145 -16.024775 -89.365318
28.181683 -14.067246 -89.321449
28.154057 -14.032937 -89.370308
28.164194 -13.100979 -89.343651
28.208996 -11.727516 -89.318054
28.22596 -11.249633 -89.33152
28.255028 -10.758327 -89.339005
28.239 -10.57406 -89.370415
28.371094 -9.441987 -89.32103
28.349081 -9.270278 -89.350044
28.343676 -8.7731895 -89.353859
28.321352 -8.2747355 -89.352203
28.31064 -7.5010157 -89.343597
28.291924 -7.012042 -89.346214
28.244484 -6.5237994 -89.346153
28.219896 -6.0314088 -89.346878
28.170515 -5.5343404 -89.345329
28.153217 -5.0314622 -89.341866
28.167076 -4.3825793 -89.349518
28.180107 -3.9092743 -89.351929
28.17597 -3.5137167 -89.336548
28.258894 -2.9462953 -89.354149
28.330379 -2.4616833 -89.353714
28.343475 -1.9972303 -89.335175
28.429512 -1.4853256 -89.347641
28.404663 -0.9981547 -89.343613
28.39328 -0.49962831 -89.345932
28.388962 0.0024349038 -89.347794
28.389734 0.50089681 -89.346886
28.44232 0.99099571 -89.34214
28.397137 1.4896584 -89.347885
28.372562 1.989666 -89.342766
28.331806 2.4819016 -89.348557
28.283718 2.9927135 -89.355026
28.264545 3.4442093 -89.336052
28.187984 3.9255924 -89.334595
28.149799 4.4025111 -89.335083
28.117367 4.8824792 -89.334312
28.12397 5.3631001 -89.329437
28.059565 6.015399 -89.344498
28.04751 6.515326 -89.340744
28.050077 7.0133843 -89.339684
28.048794 7.7548275 -89.3479
28.099771 7.9960561 -89.335014
28.091074 8.768054 -89.346161
28.066292 9.2706318 -89.342979
28.05965 9.7669287 -89.341057
