ply
format ascii 1.0
comment PCL generated
element vertex 1491
property float x
property float y
property float z
element camera 0
property float view_px
property float view_py
property float view_pz
property float x_axisx
property float x_axisy
property float x_axisz
property float y_axisx
property float y_axisy
property float y_axisz
property float z_axisx
property float z_axisy
property float z_axisz
property float focal
property float scalex
property float scaley
property float centerx
property float centery
property int viewportx
property int viewporty
property float k1
property float k2
end_header
40.622841 27.400454 -73.122398
40.138458 28.105236 -73.122398
39.641819 28.801497 -73.122398
39.133133 29.488943 -73.122398
0.78801084 0.61566138 -73.122498
0.77714622 0.62932009 -73.122498
0.76604426 0.64278781 -73.122498
0.7547096 0.65605903 -73.122498
0.74314499 0.66913038 -73.122498
0.7313534 0.68199867 -73.122498
0.71933973 0.69465846 -73.122498
0.70710689 0.70710665 -73.122498
0.6946587 0.71933949 -73.122597
0.68199819 0.73135388 -73.122597
0.66913062 0.74314481 -73.122597
0.65605927 0.75470936 -73.122597
0.64278734 0.76604468 -73.122597
0.62932032 0.77714604 -73.122597
0.61566162 0.7880106 -73.122597
0.60181463 0.79863578 -73.122597
0.58778507 0.80901712 -73.122597
0.57357651 0.819152 -73.122597
0.55919319 0.82903737 -73.122597
0.54463875 0.83867073 -73.122597
0.5299201 0.84804755 -73.122597
0.51504171 0.8571651 -73.122597
0 0 -73.122597
0.48481035 0.87461931 -73.122597
0.46947521 0.88294566 -73.122704
0.45398819 0.89100766 -73.122704
0.43837181 0.89879376 -73.122704
0.42262191 0.90630609 -73.122704
0.40673417 0.91354656 -73.122704
0.39073169 0.92050463 -73.122704
0.37461022 0.92718238 -73.122704
0.35836533 0.93358141 -73.122704
0.3420206 0.93969244 -73.122704
0.32557172 0.94551736 -73.122704
0.3090142 0.95105743 -73.122704
0.29237205 0.95630467 -73.122704
0.27564088 0.96126068 -73.122704
0.25881609 0.96592665 -73.122704
0.24192213 0.97029567 -73.122704
0.22495449 0.97436929 -73.122704
0.20790857 0.97814828 -73.122704
0.1908091 0.98162717 -73.122704
0.17365153 0.98480713 -73.122704
0.1564312 0.98768884 -73.122704
0.13917309 0.99026805 -73.122704
0.1218726 0.99254572 -73.122704
0.10452505 0.99452227 -73.122704
0.08715561 0.99619472 -73.122704
0.069759622 0.99756384 -73.122704
0.052332409 0.99862975 -73.122704
0.034899238 0.99939084 -73.122704
-0.017452788 -0.99984771 -74.207298
-3.6732051e-06 -1 -74.0215
0.01745544 -0.99984765 -74.002899
0.034899238 -0.99939084 -74.002899
0.052332409 -0.99862975 -74.002899
0.069759622 -0.99756384 -74.002899
0.08715561 -0.99619472 -74.002899
0.10452505 -0.99452227 -74.002899
0.1218726 -0.99254572 -74.002899
0.13917309 -0.99026805 -74.002899
0.1564312 -0.98768884 -74.002899
0.17365153 -0.98480713 -74.002899
0.1908091 -0.98162717 -74.002899
0.20790857 -0.97814828 -74.002899
0.22495449 -0.97436929 -74.002899
0.24192213 -0.97029567 -74.002899
0.25881609 -0.96592665 -74.002899
0.27564088 -0.96126068 -74.002899
0.29237205 -0.95630467 -74.002899
0.3090142 -0.95105743 -74.002899
0.32557172 -0.94551736 -74.002899
0.3420206 -0.93969244 -74.002899
0.35836533 -0.93358141 -74.002899
0.37461022 -0.92718238 -74.002899
0.39073169 -0.92050463 -74.002899
0.40673417 -0.91354656 -74.002899
0.42262191 -0.90630609 -74.002899
0.43837181 -0.89879376 -74.0028
0.45398819 -0.89100766 -74.0028
0.46947521 -0.88294566 -74.0028
0.48481035 -0.87461931 -74.0028
0.49999788 -0.86602664 -74.0028
0.51504171 -0.8571651 -74.0028
0.5299201 -0.84804755 -74.0028
0.54463875 -0.83867073 -74.0028
0.55919319 -0.82903737 -74.0028
0.57357651 -0.819152 -74.0028
0.58778507 -0.80901712 -74.0028
0.60181463 -0.79863578 -74.0028
0.61566162 -0.7880106 -74.0028
0.62932032 -0.77714604 -74.0028
0.64278734 -0.76604468 -74.002701
0.65605927 -0.75470936 -74.002701
0.66913062 -0.74314481 -74.002701
0.68199819 -0.73135388 -74.002701
0.6946587 -0.71933949 -74.002701
0.70710689 -0.70710665 -74.002701
0.71933973 -0.69465846 -74.002701
0.7313534 -0.68199867 -74.002701
0.74314499 -0.66913038 -74.002602
0.7547096 -0.65605903 -74.002602
0.76604426 -0.64278781 -74.002602
0.77714622 -0.62932009 -74.002602
0.78801084 -0.61566138 -74.002602
0.79863542 -0.60181516 -74.002602
0.8090167 -0.58778566 -74.002502
0.81915218 -0.57357621 -74.002502
0.82903755 -0.55919296 -74.002502
0.83867037 -0.54463935 -74.002502
37.314125 -23.316435 -74.002403
36.858196 -22.146635 -74.002403
38.105114 -22.000008 -74.002403
36.734039 -20.361986 -74.002403
37.083801 -19.717798 -74.002296
36.531265 -18.613615 -74.002296
37.749344 -18.411604 -74.002197
38.971241 -18.172573 -74.002197
38.368908 -17.082939 -74.002197
37.740696 -16.019987 -74.002098
37.08736 -14.984247 -74.002098
37.34322 -14.334713 -74.001999
37.587704 -13.680811 -74.001999
41.60281 -14.325017 -74.0019
37.091206 -12.051653 -74.0019
37.295887 -11.402497 -74.001801
37.489204 -10.749868 -74.001701
39.602962 -10.611566 -74.001701
38.811829 -9.6768723 -74.001602
38.9748 -8.9980497 -74.001503
38.147751 -8.1085749 -74.001404
37.301834 -7.2507339 -74.001404
38.407501 -6.7722816 -74.001297
40.49522 -6.4138279 -74.001198
37.630188 -5.2885652 -74.001099
37.716755 -4.6310334 -74.000999
37.791832 -3.972091 -74.0009
37.8554 -3.3119197 -74.000801
38.904999 -2.7205036 -74.000702
38.946552 -2.0411031 -74.000603
38.976242 -1.361081 -74.000504
37.994213 -0.66319174 -74.000298
39 6.7924738e-14 -74.000198
37.994213 0.66319174 -74
37.976852 1.3261814 -73.999802
37.947922 1.9887671 -73.999702
37.907433 2.6507471 -73.999496
38.851593 3.3990755 -73.999298
37.791832 3.972091 -73.9991
37.716755 4.6310334 -73.998901
38.620457 5.4277377 -73.998596
38.519844 6.1009583 -73.998398
37.422695 6.5986338 -73.998199
38.283463 7.4415426 -73.997902
40.104046 8.5243988 -73.997704
39.949169 9.2230015 -73.997398
37.841534 9.4349499 -73.997101
37.671112 10.093928 -73.996696
37.489204 10.749868 -73.996399
39.208496 11.987241 -73.996101
38.99332 12.669686 -73.995697
37.820736 13.022743 -73.9953
37.587704 13.680811 -73.995003
39.210381 15.051448 -73.994598
37.08736 14.984247 -73.994102
36.82019 15.629255 -73.993599
37.455364 16.676201 -73.993103
38.064934 17.749954 -73.992599
36.850548 17.973232 -73.991898
37.422272 19.067604 -73.991302
40.615593 21.595684 -73.990501
41.107136 22.786032 -73.989899
40.70319 23.50001 -73.989098
40.286865 24.206787 -73.988297
41.554367 25.966028 -73.987602
41.094849 26.687326 -73.986603
39.7938 26.841261 -73.985497
39.319305 27.53166 -73.984398
38.832802 28.213711 -73.983498
38.334499 28.887129 -73.9823
37.82452 29.551746 -73.981102
38.080166 30.836683 -73.9795
0.76604426 0.64278781 -73.978302
0.7547096 0.65605903 -73.976799
0.74314499 0.66913038 -73.975197
0.7313534 0.68199867 -73.9739
0.71933973 0.69465846 -73.972099
0.70710689 0.70710665 -73.970497
0.6946587 0.71933949 -73.968597
0.68199819 0.73135388 -73.966904
0.66913062 0.74314481 -73.964699
0.65605927 0.75470936 -73.962799
0.64278734 0.76604468 -73.960701
0.62932032 0.77714604 -73.958603
0.61566162 0.7880106 -73.955902
0.60181463 0.79863578 -73.953598
0.58778507 0.80901712 -73.951103
0.57357651 0.819152 -73.948502
0.55919319 0.82903737 -73.945198
0.54463875 0.83867073 -73.941704
0.5299201 0.84804755 -73.939201
0.51504171 0.8571651 -73.935402
0.49999788 0.86602664 -73.931297
0.48481035 0.87461931 -73.926903
0.46947521 0.88294566 -73.923103
0.45398819 0.89100766 -73.918297
0.43837181 0.89879376 -73.914101
0.42262191 0.90630609 -73.908699
0.40673417 0.91354656 -73.9039
0.39073169 0.92050463 -73.898003
0.37461022 0.92718238 -73.8927
0.35836533 0.93358141 -73.884903
0.3420206 0.93969244 -73.877701
0.32557172 0.94551736 -73.870201
0.3090142 0.95105743 -73.863503
0.29237205 0.95630467 -73.855103
0.27564088 0.96126068 -73.8461
0.25881609 0.96592665 -73.838303
0.24192213 0.97029567 -73.8283
0.22495449 0.97436929 -73.817802
0.20790857 0.97814828 -73.808502
0.1908091 0.98162717 -73.798698
0.17365153 0.98480713 -73.7864
0.1564312 0.98768884 -73.775597
0.13917309 0.99026805 -73.761803
0.1218726 0.99254572 -73.749802
0.10452505 0.99452227 -73.734497
0.08715561 0.99619472 -73.718102
0.069759622 0.99756384 -73.706001
0.052332409 0.99862975 -73.656998
-3.6732051e-06 -1 -74.564903
0.01745544 -0.99984765 -74.588501
0.034899238 -0.99939084 -74.603203
0.052332409 -0.99862975 -74.616501
0.069759622 -0.99756384 -74.631699
0.08715561 -0.99619472 -74.646004
0.10452505 -0.99452227 -74.6595
0.1218726 -0.99254572 -74.670197
0.13917309 -0.99026805 -74.682297
0.1564312 -0.98768884 -74.693703
0.17365153 -0.98480713 -74.702797
0.1908091 -0.98162717 -74.711403
0.20790857 -0.97814828 -74.719597
0.22495449 -0.97436929 -74.728897
0.24192213 -0.97029567 -74.736298
0.25881609 -0.96592665 -74.746002
0.27564088 -0.96126068 -74.753799
0.29237205 -0.95630467 -74.760002
0.3090142 -0.95105743 -74.766998
0.32557172 -0.94551736 -74.772598
0.3420206 -0.93969244 -74.7789
0.35836533 -0.93358141 -74.784897
0.37461022 -0.92718238 -74.790497
0.39073169 -0.92050463 -74.794899
0.40673417 -0.91354656 -74.799896
0.42262191 -0.90630609 -74.803902
0.43837181 -0.89879376 -74.808403
0.45398819 -0.89100766 -74.811996
0.46947521 -0.88294566 -74.815399
0.48481035 -0.87461931 -74.819298
0.49999788 -0.86602664 -74.822899
0.51504171 -0.8571651 -74.825798
0.5299201 -0.84804755 -74.829102
0.54463875 -0.83867073 -74.831703
0.55919319 -0.82903737 -74.834099
0.57357651 -0.819152 -74.836998
0.58778507 -0.80901712 -74.839203
0.60181463 -0.79863578 -74.841698
0.61566162 -0.7880106 -74.844101
0.62932032 -0.77714604 -74.845901
0.64278734 -0.76604468 -74.848099
32.146904 -36.980759 -74.850098
32.118271 -35.670952 -74.851601
32.735912 -35.104984 -74.853203
0.6946587 -0.71933949 -74.854897
0.70710689 -0.70710665 -74.856499
0.71933973 -0.69465846 -74.858002
0.7313534 -0.68199867 -74.8592
0.74314499 -0.66913038 -74.860603
0.7547096 -0.65605903 -74.861702
0.76604426 -0.64278781 -74.862701
0.77714622 -0.62932009 -74.863899
0.78801084 -0.61566138 -74.864998
0.79863542 -0.60181516 -74.865997
0.8090167 -0.58778566 -74.866997
0.81915218 -0.57357621 -74.867798
0.82903755 -0.55919296 -74.868698
36.062828 -23.419491 -74.869499
35.618027 -22.256596 -74.8703
36.858196 -22.146635 -74.870903
36.373062 -21.000008 -74.871696
36.734039 -20.361986 -74.872398
36.200855 -19.248327 -74.872902
38.313278 -19.521595 -74.873497
36.850548 -17.973232 -74.874001
38.064934 -17.749954 -74.874603
38.368908 -17.082939 -74.875
36.82019 -15.629255 -74.875397
37.08736 -14.984247 -74.875801
37.34322 -14.334713 -74.876198
36.64801 -13.338791 -74.876503
37.820736 -13.022743 -74.8769
37.091206 -12.051653 -74.877197
37.295887 -11.402497 -74.877502
36.527943 -10.474231 -74.877899
36.705185 -9.8351097 -74.878098
37.841534 -9.4349499 -74.878403
39.949169 -9.2230015 -74.878601
38.147751 -8.1085749 -74.878799
37.301834 -7.2507339 -74.879097
37.422695 -6.5986338 -74.879303
37.532154 -5.9445233 -74.879402
37.630188 -5.2885652 -74.8797
36.724209 -4.5091639 -74.879799
37.791832 -3.972091 -74.879997
36.859203 -3.2247639 -74.880096
38.904999 -2.7205036 -74.880302
36.949291 -1.9364312 -74.880501
36.977459 -1.2912819 -74.8806
37.994213 -0.66319174 -74.880699
37 6.7008851e-14 -74.880898
37.994213 0.66319174 -74.880997
40.975025 1.43088 -74.881104
37.947922 1.9887671 -74.881203
38.904999 2.7205036 -74.881302
38.851593 3.3990755 -74.881401
38.786354 4.0766196 -74.8815
37.716755 4.6310334 -74.881599
37.630188 5.2885652 -74.881699
38.519844 6.1009583 -74.881699
37.422695 6.5986338 -74.881798
37.301834 7.2507339 -74.881897
39.1259 8.3164864 -74.882004
37.026062 8.5481472 -74.882004
36.871239 9.1930285 -74.882103
38.637035 10.352747 -74.882103
36.527943 10.474231 -74.882202
38.25219 11.694869 -74.882202
38.042263 12.36067 -74.882301
36.875217 12.697174 -74.882301
36.64801 13.338791 -74.882401
36.409637 13.976345 -74.882401
37.08736 14.984247 -74.8825
37.740696 16.019987 -74.8825
37.455364 16.676201 -74.8825
37.158627 17.327337 -74.882599
36.850548 17.973232 -74.882599
36.531265 18.613615 -74.882599
37.083801 19.717798 -74.882698
35.859417 19.877176 -74.882698
40.70319 23.50001 -74.882698
41.144032 24.721825 -74.882797
40.706318 25.43611 -74.882797
39.417507 25.598049 -74.882797
38.964764 26.282068 -74.882797
38.500153 26.958084 -74.882797
38.023785 27.625925 -74.882896
37.535866 28.285313 -74.882896
37.03651 28.936085 -74.882896
35.748726 28.948723 -74.882896
36.770123 30.853817 -74.882896
0.7547096 0.65605903 -74.882896
0.74314499 0.66913038 -74.882896
0.7313534 0.68199867 -74.883003
0.71933973 0.69465846 -74.883003
0.70710689 0.70710665 -74.883003
0.6946587 0.71933949 -74.883003
0.68199819 0.73135388 -74.883003
0.66913062 0.74314481 -74.883003
0.65605927 0.75470936 -74.883003
0.64278734 0.76604468 -74.883003
0.62932032 0.77714604 -74.883003
27.089111 34.672466 -74.883102
25.878029 34.341339 -74.883102
25.274759 34.787735 -74.883102
24.66379 35.223537 -74.883102
25.163694 37.306683 -74.883102
24.508745 37.740185 -74.883102
0.5299201 0.84804755 -74.883102
0.51504171 0.8571651 -74.883102
0.49999788 0.86602664 -74.883102
0.48481035 0.87461931 -74.883102
0.46947521 0.88294566 -74.883102
0.45398819 0.89100766 -74.883102
0.43837181 0.89879376 -74.883102
0.42262191 0.90630609 -74.883102
0.40673417 0.91354656 -74.883102
0.39073169 0.92050463 -74.883102
0.37461022 0.92718238 -74.883102
0.35836533 0.93358141 -74.883102
0.3420206 0.93969244 -74.883102
0.32557172 0.94551736 -74.883102
0.3090142 0.95105743 -74.883102
0.29237205 0.95630467 -74.883202
0.27564088 0.96126068 -74.883202
0.25881609 0.96592665 -74.883202
0 0 -74.883202
0.22495449 0.97436929 -74.883202
0.20790857 0.97814828 -74.883202
0.1908091 0.98162717 -74.883202
0.17365153 0.98480713 -74.883202
0.1564312 0.98768884 -74.883202
0.13917309 0.99026805 -74.883202
0.1218726 0.99254572 -74.883202
0.10452505 0.99452227 -74.883202
0.08715561 0.99619472 -74.883202
0.069759622 0.99756384 -74.883202
0.052332409 0.99862975 -74.883202
0.034899238 0.99939084 -74.883202
-0.017452788 -0.99984771 -75.867798
-3.6732051e-06 -1 -75.669403
0.01745544 -0.99984765 -75.663399
0.034899238 -0.99939084 -75.663399
0.052332409 -0.99862975 -75.663399
0.069759622 -0.99756384 -75.663399
0.08715561 -0.99619472 -75.663399
0.10452505 -0.99452227 -75.663399
0.1218726 -0.99254572 -75.663399
0.13917309 -0.99026805 -75.663399
0.1564312 -0.98768884 -75.663399
0.17365153 -0.98480713 -75.663399
0.1908091 -0.98162717 -75.663399
0.20790857 -0.97814828 -75.663399
0.22495449 -0.97436929 -75.663399
0.24192213 -0.97029567 -75.663399
0.25881609 -0.96592665 -75.663399
0.27564088 -0.96126068 -75.663399
0.29237205 -0.95630467 -75.663399
0.3090142 -0.95105743 -75.663399
0.32557172 -0.94551736 -75.663399
0.3420206 -0.93969244 -75.663399
0.35836533 -0.93358141 -75.663399
0.37461022 -0.92718238 -75.663399
0.39073169 -0.92050463 -75.663399
0.40673417 -0.91354656 -75.663399
0.42262191 -0.90630609 -75.663399
0.43837181 -0.89879376 -75.663399
0.45398819 -0.89100766 -75.663399
0.46947521 -0.88294566 -75.663399
0.48481035 -0.87461931 -75.663399
0.49999788 -0.86602664 -75.6633
0.51504171 -0.8571651 -75.6633
0.5299201 -0.84804755 -75.6633
0.54463875 -0.83867073 -75.6633
0.55919319 -0.82903737 -75.6633
0.57357651 -0.819152 -75.6633
0.58778507 -0.80901712 -75.6633
0.60181463 -0.79863578 -75.6633
0.61566162 -0.7880106 -75.6633
30.836697 -38.080154 -75.6633
30.853792 -36.770145 -75.6633
31.490845 -36.226048 -75.6633
31.449141 -34.927807 -75.6633
32.053913 -34.373631 -75.6633
32.64896 -33.808956 -75.6632
0.70710689 -0.70710665 -75.6632
0.71933973 -0.69465846 -75.6632
0.7313534 -0.68199867 -75.6632
0.74314499 -0.66913038 -75.6632
0.7547096 -0.65605903 -75.6632
0.76604426 -0.64278781 -75.6632
0.77714622 -0.62932009 -75.663101
0.78801084 -0.61566138 -75.663101
0.79863542 -0.60181516 -75.663101
0.8090167 -0.58778566 -75.663101
0.81915218 -0.57357621 -75.663101
0.82903755 -0.55919296 -75.663101
35.224155 -22.874851 -75.663002
36.466076 -22.786514 -75.663002
37.715363 -22.661673 -75.663002
37.239086 -21.500008 -75.663002
35.859417 -19.877176 -75.662903
35.317905 -18.778856 -75.662903
36.531265 -18.613615 -75.662903
35.951756 -17.534861 -75.662804
36.252316 -16.904718 -75.662804
36.541821 -16.269464 -75.662804
36.82019 -15.629255 -75.662697
36.160175 -14.609641 -75.662697
38.276798 -14.693081 -75.662598
35.708317 -12.996771 -75.662598
36.875217 -12.697174 -75.662498
38.042263 -12.36067 -75.662498
37.295887 -11.402497 -75.662399
36.527943 -10.474231 -75.662399
36.705185 -9.8351097 -75.6623
38.811829 -9.6768723 -75.6623
37.026062 -8.5481472 -75.662201
37.169605 -7.9006624 -75.662102
37.301834 -7.2507339 -75.662102
36.437885 -6.4249854 -75.662003
36.544468 -5.7880888 -75.661903
36.639919 -5.1493921 -75.661797
36.724209 -4.5091639 -75.661697
37.791832 -3.972091 -75.661598
36.859203 -3.2247639 -75.661499
41.89769 -2.9297731 -75.6614
37.947922 -1.9887671 -75.661301
38.976242 -1.361081 -75.661201
37.994213 -0.66319174 -75.661102
39 6.7924738e-14 -75.661003
36.994366 0.64573932 -75.660797
37.976852 1.3261814 -75.660698
36.949291 1.9364312 -75.660599
36.90987 2.5809906 -75.6604
37.8554 3.3119197 -75.660301
36.79731 3.8675621 -75.660103
37.716755 4.6310334 -75.659897
41.591259 5.8452563 -75.659698
37.532154 5.9445233 -75.6595
36.437885 6.4249854 -75.659302
36.320206 7.0599251 -75.659103
36.191456 7.6927505 -75.658798
36.051689 8.3231964 -75.6586
38.811829 9.6768723 -75.658302
36.705185 9.8351097 -75.658096
37.489204 10.749868 -75.6577
38.25219 11.694869 -75.657501
36.140152 11.742636 -75.657204
37.820736 13.022743 -75.656799
36.64801 13.338791 -75.656403
36.409637 13.976345 -75.655998
39.868912 16.108067 -75.655602
36.82019 15.629255 -75.655197
35.628273 15.862728 -75.654701
37.158627 17.327337 -75.654099
35.951756 17.534861 -75.653702
36.531265 18.613615 -75.653099
36.200855 19.248327 -75.652496
35.859417 19.877176 -75.651901
39.837162 23.00001 -75.651199
40.286865 24.206787 -75.650597
39.01022 24.376272 -75.649803
39.417507 25.598049 -75.649101
38.964764 26.282068 -75.6483
37.681 26.384506 -75.647499
37.214767 27.038139 -75.6465
36.737228 27.683498 -75.645699
36.248497 28.320423 -75.644798
35.748726 28.948723 -75.6437
34.471992 28.925453 -75.6427
34.71664 30.178715 -75.641602
0.74314499 0.66913038 -75.640297
0.7313534 0.68199867 -75.638901
0.71933973 0.69465846 -75.637703
33.234024 33.234013 -75.636101
32.64896 33.808956 -75.634399
31.371916 33.642277 -75.633003
29.441748 32.698372 -75.631104
28.210548 32.452503 -75.629204
27.639854 32.939922 -75.627502
26.431454 32.640133 -75.625298
25.242126 32.308437 -75.623001
24.6744 32.744068 -75.620499
24.099188 33.169701 -75.617897
23.516638 33.585232 -75.615097
23.486115 34.819569 -75.612701
24.508745 37.740185 -75.610199
23.316484 37.314095 -75.606903
0.51504171 0.8571651 -75.6035
0.49999788 0.86602664 -75.599297
0.48481035 0.87461931 -75.596001
0.46947521 0.88294566 -75.592003
0.45398819 0.89100766 -75.587601
0.43837181 0.89879376 -75.583
0.42262191 0.90630609 -75.578201
0.40673417 0.91354656 -75.572098
0.39073169 0.92050463 -75.566597
0.37461022 0.92718238 -75.5597
0.35836533 0.93358141 -75.552399
0.3420206 0.93969244 -75.5457
0.32557172 0.94551736 -75.538498
0.3090142 0.95105743 -75.530998
0.29237205 0.95630467 -75.523003
0.27564088 0.96126068 -75.514503
0.25881609 0.96592665 -75.503899
0.24192213 0.97029567 -75.494301
0.22495449 0.97436929 -75.484001
0.20790857 0.97814828 -75.473198
0.1908091 0.98162717 -75.4617
0.17365153 0.98480713 -75.451599
0.1564312 0.98768884 -75.438797
0.13917309 0.99026805 -75.427597
0.1218726 0.99254572 -75.4133
0.10452505 0.99452227 -75.398399
0.08715561 0.99619472 -75.384102
0.069759622 0.99756384 -75.377197
0.052332409 0.99862975 -75.257301
-3.6732051e-06 -1 -76.118896
0.01745544 -0.99984765 -76.158699
0.034899238 -0.99939084 -76.170799
0.052332409 -0.99862975 -76.186501
0.069759622 -0.99756384 -76.201202
0.08715561 -0.99619472 -76.217201
0.10452505 -0.99452227 -76.227997
0.1218726 -0.99254572 -76.238297
0.13917309 -0.99026805 -76.25
0.1564312 -0.98768884 -76.259201
0.17365153 -0.98480713 -76.267998
0.1908091 -0.98162717 -76.276398
0.20790857 -0.97814828 -76.285896
0.22495449 -0.97436929 -76.293404
0.24192213 -0.97029567 -76.300598
0.25881609 -0.96592665 -76.3088
0.27564088 -0.96126068 -76.315201
0.29237205 -0.95630467 -76.321297
0.3090142 -0.95105743 -76.3283
0.32557172 -0.94551736 -76.3349
0.3420206 -0.93969244 -76.340103
0.35836533 -0.93358141 -76.346001
0.37461022 -0.92718238 -76.3507
0.39073169 -0.92050463 -76.355103
0.40673417 -0.91354656 -76.3601
0.42262191 -0.90630609 -76.364899
0.43837181 -0.89879376 -76.3694
0.45398819 -0.89100766 -76.373596
0.46947521 -0.88294566 -76.377602
0.48481035 -0.87461931 -76.380798
0.49999788 -0.86602664 -76.383797
0.51504171 -0.8571651 -76.386703
0.5299201 -0.84804755 -76.389397
0.54463875 -0.83867073 -76.391998
0.55919319 -0.82903737 -76.394897
0.57357651 -0.819152 -76.397202
0.58778507 -0.80901712 -76.399498
29.488916 -39.133156 -76.402
30.167421 -38.612522 -76.404404
30.207376 -37.303009 -76.406197
30.211004 -36.004101 -76.408401
30.834785 -35.47134 -76.4104
31.449141 -34.927807 -76.4123
32.053913 -34.373631 -76.414398
32.64896 -33.808956 -76.415802
33.234024 -33.234013 -76.417397
0.71933973 -0.69465846 -76.418602
0.7313534 -0.68199867 -76.4198
0.74314499 -0.66913038 -76.420898
0.7547096 -0.65605903 -76.421997
0.76604426 -0.64278781 -76.423103
0.77714622 -0.62932009 -76.424004
0.78801084 -0.61566138 -76.425201
0.79863542 -0.60181516 -76.426201
0.8090167 -0.58778566 -76.4272
0.81915218 -0.57357621 -76.428001
33.99054 -22.92691 -76.428902
35.224155 -22.874851 -76.429703
36.466076 -22.786514 -76.430397
34.286694 -20.601521 -76.431099
34.64101 -20.000008 -76.4319
35.859417 -19.877176 -76.432404
36.200855 -19.248327 -76.432999
34.749252 -17.705633 -76.433502
36.850548 -17.973232 -76.433899
37.158627 -17.327337 -76.434502
37.455364 -16.676201 -76.434898
36.82019 -15.629255 -76.435501
35.232994 -14.235035 -76.435997
35.476059 -13.617977 -76.436302
35.708317 -12.996771 -76.436699
36.875217 -12.697174 -76.437103
37.091206 -12.051653 -76.4375
37.295887 -11.402497 -76.437698
36.527943 -10.474231 -76.438103
35.739258 -9.5762911 -76.438301
37.841534 -9.4349499 -76.438599
36.051689 -8.3231964 -76.438904
37.169605 -7.9006624 -76.439201
38.283463 -7.4415426 -76.4394
37.422695 -6.5986338 -76.439598
35.556778 -5.6316538 -76.439796
36.639919 -5.1493921 -76.440002
38.709301 -4.7529025 -76.440201
36.79731 -3.8675621 -76.440399
35.86301 -3.1376081 -76.440598
37.907433 -2.6507471 -76.440697
35.950665 -1.8840952 -76.440903
35.978069 -1.2563825 -76.441002
38.994061 -0.68064415 -76.4412
36 6.51978e-14 -76.441299
36.994366 0.64573932 -76.441399
36.977459 1.2912819 -76.441498
37.947922 1.9887671 -76.441597
36.90987 2.5809906 -76.441704
37.8554 3.3119197 -76.441803
35.802788 3.7630334 -76.441902
35.731663 4.3872948 -76.442001
35.649651 5.0102196 -76.442101
35.556778 5.6316538 -76.4422
36.437885 6.4249854 -76.4422
36.320206 7.0599251 -76.442299
36.191456 7.6927505 -76.442398
36.051689 8.3231964 -76.442398
35.900944 8.951107 -76.442497
35.739258 9.5762911 -76.442596
38.450466 11.025507 -76.442596
36.339581 11.110126 -76.442703
36.140152 11.742636 -76.442703
36.875217 12.697174 -76.442802
37.587704 13.680811 -76.442802
36.409637 13.976345 -76.442802
36.160175 14.609641 -76.442902
35.899685 15.238523 -76.442902
36.541821 16.269464 -76.443001
36.252316 16.904718 -76.443001
36.850548 17.973232 -76.443001
34.749252 17.705633 -76.4431
35.317905 18.778856 -76.4431
35.859417 19.877176 -76.4431
38.971138 22.50001 -76.4431
38.572529 23.17671 -76.443199
39.01022 24.376272 -76.443199
38.578838 25.05341 -76.443199
38.135727 25.722876 -76.443199
37.681 26.384506 -76.443199
37.214767 27.038139 -76.443298
36.737228 27.683498 -76.443298
35.460487 27.704762 -76.443298
34.971581 28.319403 -76.443298
34.471992 28.925453 -76.443298
33.207222 28.866598 -76.443298
33.441525 30.110868 -76.443398
32.910904 30.689939 -76.443398
32.370289 31.25963 -76.443398
32.526917 32.526905 -76.443398
30.564983 31.650938 -76.443398
29.325922 31.448217 -76.443398
28.103487 31.212082 -76.443398
27.554489 31.697794 -76.443398
26.35428 31.407831 -76.443398
25.802134 31.862986 -76.443497
24.626465 31.520426 -76.443497
24.072584 31.945433 -76.443497
23.511404 32.360683 -76.443497
22.94306 32.766079 -76.443497
22.367729 33.161495 -76.443497
22.330189 34.385502 -76.443497
22.256643 35.618 -76.443497
21.631752 36.000935 -76.443497
21.499908 37.239143 -76.443497
0.48481035 0.87461931 -76.443497
0.46947521 0.88294566 -76.443497
0.45398819 0.89100766 -76.443497
0.43837181 0.89879376 -76.443497
0.42262191 0.90630609 -76.443497
0.40673417 0.91354656 -76.443497
0.39073169 0.92050463 -76.443497
0.37461022 0.92718238 -76.443497
0.35836533 0.93358141 -76.443497
0.3420206 0.93969244 -76.443497
0.32557172 0.94551736 -76.443604
0.3090142 0.95105743 -76.443604
0.29237205 0.95630467 -76.443604
0.27564088 0.96126068 -76.443604
0.25881609 0.96592665 -76.443604
0.24192213 0.97029567 -76.443604
0.22495449 0.97436929 -76.443604
0.20790857 0.97814828 -76.443604
0.1908091 0.98162717 -76.443604
0.17365153 0.98480713 -76.443604
0.1564312 0.98768884 -76.443604
0.13917309 0.99026805 -76.443604
0.1218726 0.99254572 -76.443604
0.10452505 0.99452227 -76.443604
0.08715561 0.99619472 -76.443604
0.069759622 0.99756384 -76.443604
0.052332409 0.99862975 -76.443604
0.034899238 0.99939084 -76.443604
-0.017452788 -0.99984771 -77.429802
-3.6732051e-06 -1 -77.324501
0.01745544 -0.99984765 -77.323799
0.034899238 -0.99939084 -77.323799
0.052332409 -0.99862975 -77.323799
0.069759622 -0.99756384 -77.323799
0.08715561 -0.99619472 -77.323799
0.10452505 -0.99452227 -77.323799
0.1218726 -0.99254572 -77.323799
0.13917309 -0.99026805 -77.323799
0.1564312 -0.98768884 -77.323799
0.17365153 -0.98480713 -77.323799
0.1908091 -0.98162717 -77.323799
0.20790857 -0.97814828 -77.323799
0.22495449 -0.97436929 -77.323799
0.24192213 -0.97029567 -77.323799
0.25881609 -0.96592665 -77.323799
0.27564088 -0.96126068 -77.323799
0.29237205 -0.95630467 -77.323799
0.3090142 -0.95105743 -77.323799
0.32557172 -0.94551736 -77.323799
0.3420206 -0.93969244 -77.323799
0.35836533 -0.93358141 -77.323799
0.37461022 -0.92718238 -77.323799
16.41073 -38.661194 -77.323799
17.082836 -38.368954 -77.323799
18.172741 -38.971161 -77.323799
0.43837181 -0.89879376 -77.323799
0.45398819 -0.89100766 -77.323799
0.46947521 -0.88294566 -77.3237
0.48481035 -0.87461931 -77.3237
0.49999788 -0.86602664 -77.3237
0.51504171 -0.8571651 -77.3237
25.966084 -41.554333 -77.3237
26.6873 -41.094868 -77.3237
27.400467 -40.622829 -77.3237
28.105249 -40.138447 -77.3237
28.80147 -39.641838 -77.3237
28.887102 -38.334518 -77.3237
28.936098 -37.036499 -77.3237
28.948734 -35.748718 -77.3237
29.568216 -35.238056 -77.3237
30.178726 -34.716629 -77.323601
30.78001 -34.184662 -77.323601
31.371916 -33.642277 -77.323601
31.9543 -33.089615 -77.323601
33.234024 -33.234013 -77.323601
33.808968 -32.648949 -77.323601
34.373611 -32.053936 -77.323601
34.927814 -31.449129 -77.323601
36.226059 -31.490833 -77.323502
37.536167 -31.496605 -77.323502
37.303017 -30.207363 -77.323502
37.82452 -29.551746 -77.323502
39.133133 -29.488943 -77.323502
39.641819 -28.801497 -77.323402
40.138458 -28.105236 -77.323402
33.99054 -22.92691 -77.323402
33.546814 -21.785574 -77.323402
33.921932 -21.196758 -77.323303
34.286694 -20.601521 -77.323303
33.774986 -19.500008 -77.323303
34.984798 -19.392368 -77.323196
36.200855 -19.248327 -77.323196
34.749252 -17.705633 -77.323196
36.850548 -17.973232 -77.323097
35.346008 -16.482101 -77.323097
35.628273 -15.862728 -77.322998
35.899685 -15.238523 -77.322998
35.232994 -14.235035 -77.322998
38.276798 -14.693081 -77.322899
36.64801 -13.338791 -77.3228
37.820736 -13.022743 -77.3228
36.140152 -11.742636 -77.322701
37.295887 -11.402497 -77.322701
35.566681 -10.198593 -77.322601
34.773335 -9.3174725 -77.322601
34.930649 -8.7091846 -77.322502
36.051689 -8.3231964 -77.322403
35.21331 -7.484838 -77.322304
36.320206 -7.0599251 -77.322197
37.422695 -6.5986338 -77.322197
35.556778 -5.6316538 -77.322098
37.630188 -5.2885652 -77.321999
35.731663 -4.3872948 -77.321899
36.79731 -3.8675621 -77.321701
34.866814 -3.0504522 -77.321602
35.912304 -2.511234 -77.321503
34.952034 -1.8317592 -77.321404
34.97868 -1.2214829 -77.321297
35.994518 -0.6282869 -77.321198
38 6.6183082e-14 -77.320999
35.994518 0.6282869 -77.3209
34.97868 1.2214829 -77.320702
35.950665 1.8840952 -77.320503
34.914742 2.4414775 -77.320396
36.859203 3.2247639 -77.320198
35.802788 3.7630334 -77.32
36.724209 4.5091639 -77.319801
35.649651 5.0102196 -77.319504
35.556778 5.6316538 -77.319298
35.453079 6.2513371 -77.319099
37.301834 7.2507339 -77.318802
37.169605 7.9006624 -77.318497
35.07732 8.0982447 -77.318298
34.930649 8.7091846 -77.317902
34.773335 9.3174725 -77.317596
36.527943 10.474231 -77.3172
35.383274 10.817754 -77.316803
36.140152 11.742636 -77.316498
34.98418 12.046037 -77.316101
35.708317 12.996771 -77.315697
34.542477 13.259609 -77.315102
36.160175 14.609641 -77.314598
34.979179 14.847793 -77.314102
35.628273 15.862728 -77.313599
34.439701 16.059483 -77.313004
34.154167 16.658117 -77.312302
34.749252 17.705633 -77.311699
34.434959 18.309385 -77.310997
35.859417 19.877176 -77.310204
34.64101 20.000008 -77.309502
39.429699 23.69175 -77.3088
39.01022 24.376272 -77.307899
37.740166 24.50877 -77.307098
38.135727 25.722876 -77.306099
37.681 26.384506 -77.305
36.405754 26.450354 -77.303902
35.938595 27.081682 -77.302803
35.460487 27.704762 -77.301598
34.194435 27.690083 -77.300499
34.471992 28.925453 -77.299301
33.207222 28.866598 -77.297997
31.955236 28.772608 -77.296501
31.448196 29.325943 -77.2948
30.931608 29.870314 -77.293098
30.405596 30.405586 -77.291496
29.175665 30.212257 -77.289902
28.643923 30.716862 -77.287804
27.434357 30.468937 -77.286003
26.89843 30.943085 -77.283699
25.711493 30.641787 -77.2817
25.172813 31.08584 -77.279198
24.626465 31.520426 -77.276901
24.072584 31.945433 -77.274597
23.511404 32.360683 -77.271599
22.94306 32.766079 -77.268402
22.367729 33.161495 -77.265099
21.785551 33.546829 -77.261497
21.196804 33.921902 -77.2584
21.116711 35.143768 -77.254402
20.499912 35.507092 -77.250198
20.362036 36.734009 -77.245697
0.46947521 0.88294566 -77.241798
0.45398819 0.89100766 -77.2369
0.43837181 0.89879376 -77.232498
0.42262191 0.90630609 -77.227898
0.40673417 0.91354656 -77.222099
0.39073169 0.92050463 -77.215897
0.37461022 0.92718238 -77.209396
0.35836533 0.93358141 -77.203697
0.3420206 0.93969244 -77.196404
0.32557172 0.94551736 -77.190002
0.3090142 0.95105743 -77.1819
0.29237205 0.95630467 -77.174797
0.27564088 0.96126068 -77.167297
0.25881609 0.96592665 -77.157898
0.24192213 0.97029567 -77.147797
0.22495449 0.97436929 -77.139
0.20790857 0.97814828 -77.129799
0.1908091 0.98162717 -77.117996
0.17365153 0.98480713 -77.107697
0.1564312 0.98768884 -77.094704
0.13917309 0.99026805 -77.083199
0.1218726 0.99254572 -77.068703
0.10452505 0.99452227 -77.055901
0.08715561 0.99619472 -77.039703
0.069759622 0.99756384 -77.025803
0.052332409 0.99862975 -77.015999
-3.6732051e-06 -1 -77.697998
0.01745544 -0.99984765 -77.817001
0.034899238 -0.99939084 -77.823601
0.052332409 -0.99862975 -77.837898
0.069759622 -0.99756384 -77.852898
0.08715561 -0.99619472 -77.867203
0.10452505 -0.99452227 -77.880699
0.1218726 -0.99254572 -77.891296
0.13917309 -0.99026805 -77.903503
0.1564312 -0.98768884 -77.913002
0.17365153 -0.98480713 -77.923897
0.1908091 -0.98162717 -77.932503
0.20790857 -0.97814828 -77.942299
0.22495449 -0.97436929 -77.9515
0.24192213 -0.97029567 -77.960197
0.25881609 -0.96592665 -77.968399
0.27564088 -0.96126068 -77.974899
0.29237205 -0.95630467 -77.982201
0.3090142 -0.95105743 -77.989197
0.32557172 -0.94551736 -77.994698
0 -0 -78.0009
0.35836533 -0.93358141 -78.006798
15.733628 -38.941662 -78.012299
16.41073 -38.661194 -78.017601
17.082836 -38.368954 -78.022499
17.75012 -38.064857 -78.026398
18.849987 -38.648129 -78.030098
21.791433 -42.768368 -78.0336
23.004286 -43.264336 -78.037697
23.270897 -41.981728 -78.040802
24.499897 -42.435307 -78.044403
25.237045 -42.001091 -78.047302
25.966084 -41.554333 -78.050499
26.6873 -41.094868 -78.053101
27.400467 -40.622829 -78.056
28.105249 -40.138447 -78.058296
28.213684 -38.832821 -78.060898
28.285288 -37.535885 -78.0634
28.320435 -36.248489 -78.0653
28.948734 -35.748718 -78.067902
28.282642 -33.705967 -78.069901
28.210548 -32.452503 -78.071602
28.772617 -31.955227 -78.0737
28.643923 -30.716862 -78.075203
29.870323 -30.931599 -78.076797
30.405596 -30.405586 -78.078102
31.650948 -30.564972 -78.079597
32.910904 -30.689939 -78.080803
33.441525 -30.110868 -78.0821
35.471352 -30.834774 -78.083199
37.536167 -31.496605 -78.084198
37.303017 -30.207363 -78.085297
37.82452 -29.551746 -78.086403
38.334499 -28.887129 -78.087402
38.832802 -28.213711 -78.088303
32.766087 -22.94305 -78.089203
33.99054 -22.92691 -78.090202
33.546814 -21.785574 -78.091003
33.921932 -21.196758 -78.091698
34.286694 -20.601521 -78.0923
33.774986 -19.500008 -78.093002
33.235558 -18.422749 -78.093697
33.552013 -17.839912 -78.0942
34.749252 -17.705633 -78.094803
35.052959 -17.096489 -78.0952
33.533394 -15.636866 -78.095802
33.801182 -15.049255 -78.096199
35.899685 -15.238523 -78.096603
34.305809 -13.860429 -78.096901
35.476059 -13.617977 -78.097298
33.828934 -12.31273 -78.097801
36.875217 -12.697174 -78.098099
34.238037 -11.124602 -78.098396
35.383274 -10.817754 -78.098701
34.605419 -9.9229555 -78.098999
34.773335 -9.3174725 -78.099197
35.900944 -8.951107 -78.099503
34.102951 -7.8732934 -78.0998
38.147751 -8.1085749 -78.099998
34.356953 -6.6783075 -78.100197
38.407501 -6.7722816 -78.100403
35.556778 -5.6316538 -78.100601
36.639919 -5.1493921 -78.1008
37.716755 -4.6310334 -78.100899
35.802788 -3.7630334 -78.101097
34.866814 -3.0504522 -78.101303
39.902561 -2.7902601 -78.101402
35.950665 -1.8840952 -78.101501
35.978069 -1.2563825 -78.101601
35.994518 -0.6282869 -78.101799
35 6.3386748e-14 -78.101898
34.994671 0.61083448 -78.101997
34.97868 1.2214829 -78.102097
35.950665 1.8840952 -78.102203
34.914742 2.4414775 -78.102303
35.86301 3.1376081 -78.102402
38.786354 4.0766196 -78.102501
35.731663 4.3872948 -78.1026
35.649651 5.0102196 -78.102699
34.569092 5.4752188 -78.102699
34.468269 6.0776887 -78.102798
35.338581 6.8691163 -78.102898
35.21331 7.484838 -78.102898
35.07732 8.0982447 -78.102997
35.900944 8.951107 -78.102997
35.739258 9.5762911 -78.103104
35.566681 10.198593 -78.103104
35.383274 10.817754 -78.103203
35.189095 11.433619 -78.103203
34.98418 12.046037 -78.103302
33.828934 12.31273 -78.103302
36.409637 13.976345 -78.103401
36.160175 14.609641 -78.103401
34.058674 14.457061 -78.103401
33.801182 15.049255 -78.1035
33.533394 15.636866 -78.1035
35.052959 17.096489 -78.1035
33.858246 17.251642 -78.1035
34.434959 18.309385 -78.1036
33.235558 18.422749 -78.1036
34.64101 20.000008 -78.1036
38.572529 23.17671 -78.1036
38.162174 23.846354 -78.1036
38.578838 25.05341 -78.103699
37.30669 25.163683 -78.103699
36.861847 25.81093 -78.103699
35.596737 25.862568 -78.103699
35.938595 27.081682 -78.103699
34.672478 27.089102 -78.103798
34.194435 27.690083 -78.103798
32.939903 27.639877 -78.103798
32.452511 28.210539 -78.103798
31.212091 28.103477 -78.103798
30.716843 28.643944 -78.103798
30.212267 29.175655 -78.103798
28.991383 28.991373 -78.103798
28.481007 29.492918 -78.103798
27.279926 29.254154 -78.103897
26.765226 29.725792 -78.103897
25.586311 29.433664 -78.103897
25.068707 29.875742 -78.103897
24.543493 30.308695 -78.103897
24.010803 30.732414 -78.103897
23.47077 31.146797 -78.103897
22.923618 31.551668 -78.103897
22.369484 31.946928 -78.103897
21.808535 32.332458 -78.103897
21.240911 32.70816 -78.103897
20.666883 33.073856 -78.103897
20.086628 33.42944 -78.103897
19.999916 34.641064 -78.103897
19.877224 35.85939 -78.103897
19.717958 37.083717 -78.103897
0.45398819 0.89100766 -78.103996
0.43837181 0.89879376 -78.103996
0.42262191 0.90630609 -78.103996
0.40673417 0.91354656 -78.103996
0.39073169 0.92050463 -78.103996
0.37461022 0.92718238 -78.103996
0.35836533 0.93358141 -78.103996
0.3420206 0.93969244 -78.103996
0.32557172 0.94551736 -78.103996
0.3090142 0.95105743 -78.103996
13.741486 44.94632 -78.103996
12.95512 45.179253 -78.103996
12.164356 45.398552 -78.103996
0.24192213 0.97029567 -78.103996
0.22495449 0.97436929 -78.103996
0.20790857 0.97814828 -78.103996
0.1908091 0.98162717 -78.103996
0.17365153 0.98480713 -78.103996
0.1564312 0.98768884 -78.103996
0.13917309 0.99026805 -78.103996
0.1218726 0.99254572 -78.103996
0.10452505 0.99452227 -78.103996
0.08715561 0.99619472 -78.103996
0.069759622 0.99756384 -78.103996
0.052332409 0.99862975 -78.103996
0.034899238 0.99939084 -78.103996
-0.017452788 -0.99984771 -79.126999
-3.6732051e-06 -1 -78.952301
0.01745544 -0.99984765 -78.884201
0.034899238 -0.99939084 -78.884201
0.052332409 -0.99862975 -78.884201
0.069759622 -0.99756384 -78.884201
0.08715561 -0.99619472 -78.884201
0.10452505 -0.99452227 -78.884201
0.1218726 -0.99254572 -78.884201
0.13917309 -0.99026805 -78.884201
0.1564312 -0.98768884 -78.884201
0.17365153 -0.98480713 -78.884201
0.1908091 -0.98162717 -78.884201
0.20790857 -0.97814828 -78.884201
0.22495449 -0.97436929 -78.884201
0.24192213 -0.97029567 -78.884102
0.25881609 -0.96592665 -78.884102
0.27564088 -0.96126068 -78.884102
0.29237205 -0.95630467 -78.884102
0.3090142 -0.95105743 -78.884102
0.32557172 -0.94551736 -78.884102
0.3420206 -0.93969244 -78.884102
15.051344 -39.210419 -78.884102
15.733628 -38.941662 -78.884102
16.019999 -37.740688 -78.884102
16.676102 -37.45541 -78.884102
17.327497 -37.15855 -78.884102
18.411615 -37.749336 -78.884102
19.521494 -38.313332 -78.884102
23.004286 -43.264336 -78.884102
23.755707 -42.856346 -78.884102
24.499897 -42.435307 -78.884102
24.722002 -41.143925 -78.884102
25.436165 -40.706284 -78.884102
26.6873 -41.094868 -78.884102
26.841274 -39.793793 -78.884003
26.38452 -37.680992 -78.884003
27.625898 -38.023804 -78.884003
27.081657 -35.93861 -78.884003
27.704773 -35.46048 -78.884003
27.060774 -33.417278 -78.884003
26.997068 -32.173878 -78.884003
27.554489 -31.697794 -78.884003
28.103487 -31.212082 -78.884003
28.643923 -30.716862 -78.883904
29.175665 -30.212257 -78.883904
29.69849 -29.698481 -78.883904
30.931608 -29.870314 -78.883904
31.448196 -29.325943 -78.883904
33.441525 -30.110868 -78.883904
33.961929 -29.522657 -78.883797
35.238037 -29.568241 -78.883797
35.748726 -28.948723 -78.883797
36.248497 -28.320423 -78.883797
37.535866 -28.285313 -78.883797
38.023785 -27.625925 -78.883698
32.766087 -22.94305 -78.883698
33.161503 -22.367718 -78.883698
33.546814 -21.785574 -78.883698
33.073883 -20.66684 -78.883598
32.572357 -19.571445 -78.883598
33.774986 -19.500008 -78.883598
33.235558 -18.422749 -78.883598
35.317905 -18.778856 -78.883499
32.967239 -16.797651 -78.883499
33.255375 -16.219746 -78.8834
36.252316 -16.904718 -78.8834
34.714729 -15.455992 -78.883301
34.979179 -14.847793 -78.883301
34.305809 -13.860429 -78.883202
35.476059 -13.617977 -78.883202
33.828934 -12.31273 -78.883102
34.038662 -11.720469 -78.883102
33.28698 -10.815586 -78.883003
34.426971 -10.525382 -78.882896
33.644157 -9.6473179 -78.882896
35.739258 -9.5762911 -78.882797
36.871239 -9.1930285 -78.882698
34.102951 -7.8732934 -78.882698
34.235161 -7.276926 -78.882599
35.338581 -6.8691163 -78.8825
34.468269 -6.0776887 -78.882401
34.569092 -5.4752188 -78.882301
35.649651 -5.0102196 -78.882103
33.746571 -4.1435561 -78.882103
35.802788 -3.7630334 -78.882004
34.866814 -3.0504522 -78.881798
33.917179 -2.371721 -78.881699
34.952034 -1.8317592 -78.881599
34.97868 -1.2214829 -78.881401
34.994671 -0.61083448 -78.881302
35 6.0958102e-14 -78.881203
36.994366 0.64573932 -78.880997
33.979286 1.1865834 -78.880898
36.949291 1.9364312 -78.880699
36.90987 2.5809906 -78.880501
33.870621 2.9632964 -78.880402
34.808266 3.6585047 -78.880203
33.746571 4.1435561 -78.879997
33.669117 4.731874 -78.879799
33.581402 5.3187842 -78.8797
34.468269 6.0776887 -78.879402
36.320206 7.0599251 -78.879097
34.235161 7.276926 -78.878899
34.102951 7.8732934 -78.8787
34.930649 8.7091846 -78.878304
35.739258 9.5762911 -78.877998
34.605419 9.9229555 -78.877701
33.470665 10.23301 -78.877403
35.189095 11.433619 -78.877098
34.038662 11.720469 -78.876701
33.828934 12.31273 -78.876198
34.542477 13.259609 -78.875801
35.232994 14.235035 -78.875298
34.058674 14.457061 -78.874901
33.801182 15.049255 -78.874397
33.533394 15.636866 -78.873802
33.255375 16.219746 -78.873299
32.967239 16.797651 -78.872803
33.552013 17.839912 -78.872002
33.235558 18.422749 -78.871201
34.64101 20.000008 -78.870399
38.572529 23.17671 -78.869598
39.01022 24.376272 -78.868896
37.740166 24.50877 -78.868103
35.648613 24.045298 -78.867104
36.042694 25.237354 -78.866096
35.596737 25.862568 -78.865196
35.139957 26.479868 -78.863998
34.672478 27.089102 -78.862999
33.417286 27.060762 -78.861702
33.705948 28.282665 -78.860603
31.697802 27.55448 -78.8591
31.212091 28.103477 -78.857903
29.985491 27.961945 -78.8563
29.492928 28.480997 -78.854897
28.284275 28.284267 -78.853401
27.786348 28.773579 -78.851501
26.597929 28.5228 -78.849899
26.096094 28.982647 -78.847801
24.930252 28.678955 -78.845596
24.425919 29.109697 -78.843697
23.914173 29.531548 -78.841202
23.395142 29.944405 -78.8386
22.868956 30.34816 -78.836304
22.335833 30.742651 -78.8339
22.369484 31.946928 -78.831398
21.808535 32.332458 -78.827599
21.240911 32.70816 -78.824799
20.666883 33.073856 -78.821198
20.086628 33.42944 -78.818001
19.499918 33.77504 -78.814003
19.392414 34.984772 -78.809799
19.248484 36.200771 -78.805298
0.45398819 0.89100766 -78.8013
0.43837181 0.89879376 -78.795403
0.42262191 0.90630609 -78.791
0.40673417 0.91354656 -78.785301
0.39073169 0.92050463 -78.779404
0.37461022 0.92718238 -78.773003
0.35836533 0.93358141 -78.767403
0.3420206 0.93969244 -78.761597
0.32557172 0.94551736 -78.754204
14.832682 45.650757 -78.7463
14.033858 45.902622 -78.739403
12.67948 44.217991 -78.730598
12.164356 45.398552 -78.7229
11.370339 45.603897 -78.713203
0.22495449 0.97436929 -78.704597
0.20790857 0.97814828 -78.693802
0.1908091 0.98162717 -78.684196
0.17365153 0.98480713 -78.672096
0.1564312 0.98768884 -78.659302
0.13917309 0.99026805 -78.645798
0.1218726 0.99254572 -78.633797
0.10452505 0.99452227 -78.621399
0.08715561 0.99619472 -78.601799
0.069759622 0.99756384 -78.597198
0.052332409 0.99862975 -78.478897
-3.6732051e-06 -1 -79.2118
0.01745544 -0.99984765 -79.213997
0.034899238 -0.99939084 -79.226601
0.052332409 -0.99862975 -79.239998
0.069759622 -0.99756384 -79.250702
0.08715561 -0.99619472 -79.258904
0.10452505 -0.99452227 -79.2687
0.1218726 -0.99254572 -79.274399
0.13917309 -0.99026805 -79.2799
0.1564312 -0.98768884 -79.288696
0.17365153 -0.98480713 -79.297096
0.1908091 -0.98162717 -79.305
0.20790857 -0.97814828 -79.312599
0.22495449 -0.97436929 -79.319901
0.24192213 -0.97029567 -79.326797
0.25881609 -0.96592665 -79.333397
0.27564088 -0.96126068 -79.340797
0.29237205 -0.95630467 -79.3479
0.3090142 -0.95105743 -79.3545
0.32557172 -0.94551736 -79.359802
0.3420206 -0.93969244 -79.3638
15.051344 -39.210419 -79.369499
15.359018 -38.014477 -79.373199
16.019999 -37.740688 -79.377502
16.269367 -36.541862 -79.3825
16.904877 -36.252243 -79.385597
17.973244 -36.850544 -79.390099
19.067505 -37.422321 -79.3937
19.717958 -37.083717 -79.397697
19.877224 -35.85939 -79.400902
20.499912 -35.507092 -79.404503
21.631752 -36.000935 -79.407997
24.906244 -39.858238 -79.410599
25.598022 -39.417526 -79.412697
25.722889 -38.135719 -79.415703
25.810944 -36.861839 -79.417503
25.862543 -35.596752 -79.420197
26.479843 -35.139977 -79.422302
26.47345 -33.884457 -79.424301
26.431454 -32.640133 -79.426598
26.997068 -32.173878 -79.428398
27.554489 -31.697794 -79.429802
28.103487 -31.212082 -79.431801
28.643923 -30.716862 -79.432999
28.481007 -29.492918 -79.434502
28.991383 -28.991373 -79.435997
30.212267 -29.175655 -79.437897
30.716843 -28.643944 -79.438599
31.955236 -28.772608 -79.439598
32.452511 -28.210539 -79.440804
33.705948 -28.282665 -79.441704
34.194435 -27.690083 -79.443001
37.03651 -28.936085 -79.444
36.737228 -27.683498 -79.445
32.360668 -23.511425 -79.445702
32.766087 -22.94305 -79.446602
33.161503 -22.367718 -79.447502
32.708145 -21.240934 -79.448097
32.225834 -20.136921 -79.448898
33.429527 -20.086483 -79.449699
32.908962 -19.000008 -79.4505
32.360939 -17.937941 -79.451202
32.669064 -17.370441 -79.451797
34.749252 -17.705633 -79.4524
32.356579 -15.781374 -79.453003
35.346008 -16.482101 -79.453499
32.887638 -14.642518 -79.453903
33.138172 -14.06633 -79.454201
33.378624 -13.485823 -79.454803
32.675316 -12.542873 -79.4552
33.828934 -12.31273 -79.455498
34.038662 -11.720469 -79.455902
35.189095 -11.433619 -79.4562
33.470665 -10.23301 -79.456596
34.605419 -9.9229555 -79.456902
34.773335 -9.3174725 -79.457298
32.990055 -8.2253408 -79.457703
35.07732 -8.0982447 -79.458099
34.235161 -7.276926 -79.458397
33.375324 -6.4874988 -79.458801
34.468269 -6.0776887 -79.459099
35.556778 -5.6316538 -79.459396
35.649651 -5.0102196 -79.459602
35.731663 -4.3872948 -79.459801
35.802788 -3.7630334 -79.459999
34.866814 -3.0504522 -79.460197
34.914742 -2.4414775 -79.460503
33.953403 -1.7794232 -79.460602
33.979286 -1.1865834 -79.460899
33.994823 -0.59338206 -79.460999
34 6.1575697e-14 -79.461197
34.994671 0.61083448 -79.461304
35.978069 1.2563825 -79.461502
34.952034 1.8317592 -79.461601
34.914742 2.4414775 -79.4618
34.866814 3.0504522 -79.461899
35.802788 3.7630334 -79.461998
33.746571 4.1435561 -79.462097
33.669117 4.731874 -79.462196
36.544468 5.7880888 -79.462303
36.437885 6.4249854 -79.462402
33.375324 6.4874988 -79.462502
35.21331 7.484838 -79.462601
34.102951 7.8732934 -79.462601
32.990055 8.2253408 -79.4627
34.773335 9.3174725 -79.462799
33.644157 9.6473179 -79.462898
34.426971 10.525382 -79.462997
36.140152 11.742636 -79.463097
37.820736 13.022743 -79.463097
33.828934 12.31273 -79.463203
33.608898 12.901241 -79.463303
33.378624 13.485823 -79.463303
33.138172 14.06633 -79.463402
32.887638 14.642518 -79.463501
32.627087 15.214247 -79.463501
34.154167 16.658117 -79.4636
33.858246 17.251642 -79.4636
33.552013 17.839912 -79.4636
34.110176 18.907558 -79.463699
32.908962 19.000008 -79.463699
33.429527 20.086483 -79.463799
37.314125 23.316435 -79.463799
36.901497 23.96413 -79.463799
36.477654 24.60449 -79.463799
36.042694 25.237354 -79.463898
35.596737 25.862568 -79.463898
35.139957 26.479868 -79.463898
34.672478 27.089102 -79.463898
34.194435 27.690083 -79.463997
32.173859 26.997089 -79.463997
31.697802 27.55448 -79.463997
30.468946 27.434345 -79.463997
29.985491 27.961945 -79.463997
28.773588 27.786339 -79.464104
28.284275 28.284267 -79.464104
27.786348 28.773579 -79.464104
26.597929 28.5228 -79.464104
25.426964 28.239502 -79.464104
24.930252 28.678955 -79.464104
24.425919 29.109697 -79.464203
23.914173 29.531548 -79.464203
23.395142 29.944405 -79.464203
22.868956 30.34816 -79.464203
22.335833 30.742651 -79.464203
21.795908 31.127775 -79.464203
21.249342 31.50342 -79.464203
20.696274 31.869488 -79.464203
20.136963 32.225807 -79.464203
20.086628 33.42944 -79.464203
19.499918 33.77504 -79.464203
18.907604 34.110153 -79.464203
18.779009 35.317825 -79.464302
0.45398819 0.89100766 -79.464302
0.43837181 0.89879376 -79.464302
0.42262191 0.90630609 -79.464302
0.40673417 0.91354656 -79.464302
0.39073169 0.92050463 -79.464302
0.37461022 0.92718238 -79.464302
0.35836533 0.93358141 -79.464302
0.3420206 0.93969244 -79.464302
15.627442 45.384834 -79.464302
14.523667 44.699699 -79.464302
13.449114 43.990013 -79.464302
12.67948 44.217991 -79.464302
11.90554 44.432625 -79.464302
11.128418 44.633602 -79.464302
10.572861 45.795357 -79.464302
0.20790857 0.97814828 -79.464302
0.1908091 0.98162717 -79.464302
0.17365153 0.98480713 -79.464302
0.1564312 0.98768884 -79.464302
0.13917309 0.99026805 -79.464302
0.1218726 0.99254572 -79.464302
0.10452505 0.99452227 -79.464302
0.08715561 0.99619472 -79.464302
0.069759622 0.99756384 -79.464302
0.052332409 0.99862975 -79.464302
0.034899238 0.99939084 -79.464302
-0.017452788 -0.99984771 -80.622597
-3.6732051e-06 -1 -80.3955
0.01745544 -0.99984765 -80.245201
0.034899238 -0.99939084 -80.244499
