ply
format ascii 1.0
comment PCL generated
element vertex 1515
property float x
property float y
property float z
element camera 0
property float view_px
property float view_py
property float view_pz
property float x_axisx
property float x_axisy
property float x_axisz
property float y_axisx
property float y_axisy
property float y_axisz
property float z_axisx
property float z_axisy
property float z_axisz
property float focal
property float scalex
property float scaley
property float centerx
property float centery
property int viewportx
property int viewporty
property float k1
property float k2
end_header
46.293911 3.989989 -63.71069
46.316109 4.8006034 -63.802551
47.108047 5.8643332 -62.950737
47.132278 6.6817026 -63.035995
47.096752 7.5075703 -63.105785
46.53994 8.9915962 -63.69418
46.776188 9.9602947 -63.207829
46.97084 10.934267 -62.750687
46.823284 11.75886 -62.801655
45.992168 12.206155 -63.797302
46.179111 13.23249 -63.386608
46.29007 14.289303 -62.992737
45.921371 14.84487 -63.543579
45.800262 15.648351 -63.629246
46.114269 16.760218 -63.404461
44.648365 -19.909874 -64.166664
44.846874 -19.106403 -64.073341
44.830097 -18.026697 -64.465805
45.30901 -17.498522 -63.931122
45.24897 -16.43594 -64.341446
45.454311 -15.636127 -64.289795
45.64238 -14.831993 -64.2332
46.128967 -14.258138 -63.675983
45.501293 -12.972613 -64.489235
45.617199 -12.174336 -64.41716
45.299976 -10.373934 -64.629471
45.403313 -9.5930872 -64.572586
45.528103 -8.7952251 -64.538147
46.003826 -8.1469927 -64.011948
45.717922 -7.2058492 -64.46582
45.806488 -6.4203596 -64.447258
45.828686 -5.6175156 -64.376434
45.931168 -3.2080638 -64.275337
46.003227 -2.4086058 -64.292152
46.369518 -1.6378963 -63.788593
46.375397 -0.80123425 -63.788929
46.056931 0.00036576341 -64.280914
45.943943 1.6054102 -64.215546
45.904633 2.4081881 -64.211952
45.875652 3.2090743 -64.227371
45.874535 4.0081201 -64.275444
45.910664 4.8050895 -64.36602
46.29327 5.7323518 -63.954807
45.905483 6.4103432 -64.53508
46.48703 9.1118174 -63.707542
45.907417 9.7664957 -64.180801
45.79858 10.57293 -64.237274
45.690952 11.377894 -64.300453
45.565681 12.176004 -64.353485
45.475174 12.971737 -64.445526
45.380394 13.760007 -64.550331
45.555031 14.831307 -64.164398
45.439636 15.628419 -64.269913
45.663448 16.754803 -63.987041
45.675674 17.559772 -64.187126
44.086288 -19.55858 -65.173386
44.306408 -18.770771 -65.098251
44.480751 -17.977398 -64.996712
44.693905 -17.187267 -64.929459
44.59988 -16.121723 -65.338509
45.372517 -15.807299 -64.326744
45.256069 -14.795962 -64.718712
45.012249 -13.745898 -65.065155
45.081223 -12.949878 -64.938583
45.612129 -12.385526 -64.412323
45.243347 -11.353125 -64.723808
45.0298 -9.5663614 -65.045143
45.508263 -8.9319324 -64.513824
45.637791 -8.1295929 -64.491013
44.968777 -7.0741854 -65.428291
45.107056 -4.7184796 -65.307091
45.208939 -2.3637404 -65.228676
45.308823 7.6115735e-05 -65.257607
45.25605 1.5748205 -65.240341
45.534603 3.2242703 -64.741516
45.198345 3.9098716 -65.313499
45.529102 5.6019387 -64.913292
45.093143 6.2807608 -65.445427
45.878933 7.3371606 -64.560997
44.972584 7.8519754 -65.57328
45.267056 8.7816734 -65.116112
45.12413 9.5725431 -65.128723
45.014709 10.358917 -65.179443
45.209587 12.15384 -64.880554
45.408279 13.181549 -64.496239
45.001133 13.743649 -65.058395
45.177765 14.82737 -64.690605
44.804405 15.301757 -65.263527
44.747021 16.077169 -65.398201
44.925533 17.991085 -65.301239
43.289757 -21.05504 -65.995888
43.470078 -20.282486 -65.880302
43.667702 -19.502405 -65.782059
43.636597 -18.408936 -66.154793
43.799698 -17.633202 -66.05471
43.969368 -16.853889 -65.964752
44.132168 -16.071583 -65.875893
43.964634 -15.017079 -66.251503
44.111141 -14.235358 -66.171249
44.176857 -13.453771 -66.038101
44.233459 -12.679614 -65.911674
43.924625 -11.662534 -66.258339
44.36549 -11.12429 -65.689888
44.10918 -10.14025 -66.096397
44.228416 -9.3704634 -66.066658
44.315166 -8.5946283 -66.010956
44.900452 -7.1587653 -65.487411
45.022404 -5.5690327 -65.395088
44.657196 -4.7013574 -65.819099
44.398911 -1.5383781 -66.2388
44.41383 -0.77659488 -66.238129
44.854465 -0.00016274284 -65.785164
44.436634 0.7794742 -66.242172
44.489388 3.0743182 -66.356316
44.81739 3.9221632 -65.887939
45.090588 5.5808682 -65.430359
45.010788 7.1756539 -65.542381
44.907326 7.9648857 -65.561195
44.393234 8.5992146 -66.072647
44.656975 9.5482454 -65.619522
44.18132 10.125565 -66.156837
44.488457 11.127057 -65.784424
44.129238 11.664725 -66.391891
44.697609 12.932193 -65.548271
44.321072 13.450499 -66.12104
44.438129 15.301735 -65.892517
44.483486 17.179171 -65.676064
44.826572 18.333181 -65.483604
44.810276 19.165575 -65.679848
44.36182 19.467722 -66.277336
42.971848 -21.022423 -66.566895
43.139061 -20.250761 -66.443558
43.043617 -19.129488 -66.745041
43.456272 -17.592537 -66.590691
43.593033 -16.813807 -66.477234
43.422848 -15.746928 -66.822975
43.888538 -15.252074 -66.269302
43.691074 -14.211214 -66.631081
43.439869 -13.165895 -66.996521
43.805191 -12.675044 -66.367683
43.533703 -11.648991 -66.730415
43.616714 -10.884748 -66.640266
43.697762 -10.112946 -66.561928
43.466068 -9.1735649 -67.010719
43.950665 -8.5719452 -66.500595
44.022488 -7.7949104 -66.447502
44.137974 -7.0184145 -66.44117
43.844467 -6.1441593 -66.877747
43.948792 -4.6034083 -66.816437
43.968487 -3.8346438 -66.777748
44.349548 -3.1332014 -66.269135
44.355267 -2.3466542 -66.232193
44.380592 -1.5659558 -66.22229
44.003735 -1.7547598e-05 -66.682152
44.026306 0.76883751 -66.705254
44.396278 1.5503914 -66.226578
44.41378 2.359153 -66.269585
44.443432 3.1463418 -66.333405
44.436901 3.9237387 -66.369499
44.012131 4.6041837 -66.878029
43.966175 5.3680983 -66.914902
44.251041 6.2521138 -66.420403
44.163734 7.0228105 -66.437691
43.68087 7.6554537 -66.964943
43.531113 8.4113741 -66.955391
43.838013 9.3549757 -66.538254
43.775608 10.887262 -66.769264
43.766861 11.644881 -66.896584
43.764462 12.401814 -67.03511
44.221828 13.739118 -66.193817
43.892475 14.213425 -66.778854
43.742565 15.746416 -67.056862
43.611187 16.490465 -67.161743
43.959942 18.757229 -66.527145
43.916286 19.521435 -66.729691
42.314915 -21.356359 -67.849823
42.411789 -20.614212 -67.671303
42.691887 -19.092794 -67.397171
42.632542 -17.989868 -67.76561
42.891739 -16.479982 -67.521469
42.725552 -15.411272 -67.894112
42.927841 -13.909459 -67.664551
42.674316 -12.877616 -68.01313
43.089718 -12.399184 -67.429993
42.783981 -11.396099 -67.766266
42.943417 -9.9021063 -67.612564
43.030434 -9.1476603 -67.553917
43.162483 -8.3934555 -67.537987
42.933933 -7.5165691 -67.99707
43.339119 -6.871376 -67.468864
43.408836 -6.1122694 -67.437752
43.200905 -4.5067015 -67.876862
43.172729 -3.7439206 -67.797867
43.180935 -0.75071567 -67.699165
43.167648 -0.00070223986 -67.682594
43.171265 0.75302297 -67.691544
43.177021 1.5061272 -67.713478
43.586479 2.2982569 -67.289574
43.196945 3.7540174 -67.838943
43.563351 4.5951266 -67.404236
43.069256 5.2573605 -67.872803
43.401913 6.1149702 -67.418182
43.30489 6.8767061 -67.430405
42.838184 7.4792867 -67.945671
43.112316 8.3935871 -67.493637
43.039009 9.148138 -67.556496
43.357979 10.12537 -67.18029
43.367908 11.64901 -67.482422
43.66481 12.684155 -67.170479
43.613094 13.448545 -67.294922
43.535843 14.216063 -67.404198
43.734768 15.287568 -67.042358
43.037956 15.400915 -68.128197
43.184029 16.49085 -67.730179
43.012184 17.245481 -67.832664
43.49321 19.53323 -67.268311
43.013222 19.860468 -67.886261
42.020618 -21.345161 -68.423973
41.893547 -20.17103 -68.714058
42.184689 -19.824242 -68.065491
42.148933 -16.882433 -68.642479
42.527374 -16.454479 -68.030647
42.354599 -15.393625 -68.385597
42.7966 -14.952589 -67.79744
42.562637 -13.899558 -68.157814
42.307121 -12.873917 -68.512863
42.38792 -12.131505 -68.407745
42.454903 -11.385718 -68.302055
42.207222 -10.425453 -68.710251
42.580158 -9.8809404 -68.125336
42.370949 -8.9597273 -68.564522
42.753681 -8.3693848 -68.025642
42.569794 -7.4808049 -68.503464
42.732498 -5.9979515 -68.458359
42.816677 -3.747735 -68.324333
42.811577 0.74831951 -68.203384
42.450695 1.4757092 -68.698433
42.459644 2.1950598 -68.73468
43.192726 3.8182912 -67.837936
42.738075 4.4938326 -68.319138
42.591492 5.9847755 -68.348221
42.384041 8.2068338 -68.474243
42.691353 9.1533184 -68.083946
42.325264 9.6659164 -68.664085
42.258926 11.106709 -68.895279
42.602036 12.119867 -68.568474
42.861618 13.906825 -68.390312
42.768532 14.661494 -68.514366
42.779465 16.476868 -68.21315
42.924862 17.568895 -67.839867
42.34985 18.729708 -68.603912
42.231403 19.435108 -68.785103
41.71801 -22.070238 -69.276466
41.607468 -19.436819 -69.063606
41.4538 -18.32468 -69.368484
41.44305 -16.507698 -69.602531
41.640961 -15.051317 -69.342575
41.718372 -14.326252 -69.206398
41.837902 -13.596492 -69.114014
42.266914 -13.15088 -68.536308
41.708748 -11.868302 -69.403542
42.156242 -10.619563 -68.719704
41.91568 -9.674161 -69.134033
41.68264 -8.7679548 -69.58387
42.126549 -8.1995955 -69.057396
42.290306 -6.7112322 -68.977852
41.998032 -5.8738127 -69.441849
42.421383 -5.2206149 -68.914177
42.498497 -2.2615147 -68.788574
42.140087 -1.4658517 -69.244095
42.09549 -0.73352581 -69.196533
42.091427 0.0009740456 -69.188782
42.086338 0.73456329 -69.190323
42.08099 2.2006915 -69.22789
42.084812 2.9338553 -69.270058
42.055698 3.6669102 -69.293022
41.996128 4.3981166 -69.30555
42.276348 5.220932 -68.793381
41.861477 5.8525882 -69.332932
41.701752 7.2961578 -69.369164
42.018597 8.9400043 -69.084183
41.9958 9.6713161 -69.194
41.970123 10.397608 -69.30751
42.230843 11.39938 -68.907486
42.224842 12.129651 -69.059059
42.493126 13.891254 -68.874054
42.584511 15.721343 -68.589157
42.088295 16.130005 -69.177773
42.26609 17.214994 -68.795029
42.124783 17.96426 -68.92942
41.57975 18.332861 -69.515648
41.36792 -22.064304 -69.797493
41.33181 -21.31848 -69.506798
40.804447 -19.747063 -70.150795
41.228996 -19.426041 -69.576378
40.779003 -17.909796 -70.329971
41.519211 -17.907125 -69.286667
41.372097 -16.837589 -69.629929
40.800343 -15.419333 -70.416756
41.598511 -15.373863 -69.378502
41.315716 -14.319843 -69.681496
41.088493 -13.288427 -70.045029
41.528919 -12.839176 -69.483803
41.660149 -12.103299 -69.414215
41.06118 -10.893886 -70.271141
41.113522 -10.177183 -70.171646
41.552895 -9.6463795 -69.629929
41.756844 -8.18015 -69.548195
41.501148 -7.2998915 -70.011703
41.929695 -6.6984434 -69.466141
41.640911 -5.8481765 -69.93866
41.695183 -5.1189942 -69.90551
41.417053 -4.3211002 -70.408287
41.807526 -3.6595252 -69.872414
41.834095 -2.9299386 -69.84922
41.787819 -1.4657488 -69.760216
41.767296 -0.73676944 -69.727638
41.718067 0.72691989 -69.681076
41.739388 1.4558508 -69.712204
41.706833 2.1906352 -69.712448
41.70174 2.9231625 -69.741234
41.308689 3.5907893 -70.263168
41.247269 4.2985234 -70.267792
41.185291 5.0152054 -70.281456
41.752666 6.7096591 -69.34211
41.356411 7.2932534 -69.896088
41.342968 8.7348747 -70.109566
41.956985 10.667164 -69.338348
41.566406 11.128305 -69.925125
41.837616 12.134225 -69.545006
41.374985 12.579179 -70.107292
41.257263 13.301423 -70.19252
41.958057 14.632213 -69.402527
41.404324 15.051918 -69.951096
41.681271 16.108316 -69.597694
41.126614 16.492445 -70.195503
40.954582 17.209251 -70.296593
41.839867 19.825897 -69.280464
40.96936 19.757515 -70.381561
40.229065 -20.442047 -70.883095
40.073006 -19.312801 -71.171951
40.212376 -18.605803 -71.032379
40.341366 -17.898243 -70.889297
40.785248 -17.550724 -70.290634
40.251957 -16.11651 -71.088234
40.348003 -15.41223 -70.945633
40.44453 -14.707281 -70.812355
40.162209 -13.679704 -71.157646
40.403156 -12.286869 -70.975227
40.703884 -10.15878 -70.742012
40.54015 -7.8365822 -71.021103
40.637398 -7.1272311 -70.993225
41.128235 -6.5516133 -70.494446
41.219349 -5.8227296 -70.474609
41.281548 -5.0957837 -70.454727
41.358139 -4.3657355 -70.450035
40.995956 -3.5792782 -70.907021
41.019897 -2.8635681 -70.876053
41.068665 -1.4307673 -70.849731
40.948582 2.145941 -70.782509
41.299244 2.9026701 -70.306847
41.245277 3.6416574 -70.30999
41.186604 4.3729811 -70.323814
40.749096 4.9985933 -70.82209
40.673603 5.7093873 -70.836861
40.59565 6.4151564 -70.859962
40.574062 7.119422 -70.93528
40.944294 8.0177393 -70.551781
40.911842 8.7313032 -70.64019
40.514393 9.2151165 -71.228676
40.82169 10.157828 -70.833282
40.905376 12.564579 -70.593903
40.432327 13.005562 -71.187523
40.528648 14.715914 -70.884064
40.795532 15.753921 -70.524086
41.021416 19.374973 -70.151031
40.533535 19.728174 -70.849625
40.096497 -22.294714 -71.448997
39.283581 -20.698025 -71.897346
39.821262 -20.39786 -71.340172
39.395256 -18.866867 -72.174072
39.850132 -18.594439 -71.531975
40.270832 -18.28573 -70.931526
39.797943 -16.805908 -71.725761
39.848038 -16.107628 -71.537743
39.577835 -15.049103 -71.860367
40.053627 -14.708072 -71.267242
39.754864 -13.674995 -71.592339
39.484062 -12.691265 -71.971916
40.011517 -12.273578 -71.430351
39.748398 -11.319135 -71.837494
40.225376 -10.845012 -71.276802
40.308887 -10.132003 -71.189644
40.393009 -9.4262199 -71.129219
39.763012 -7.6549296 -71.968582
40.342281 -5.6944571 -71.346344
39.988636 -4.8887362 -71.806969
40.074818 -4.2005167 -71.813225
40.585632 -3.5594571 -71.343246
40.662922 -2.1410968 -71.336876
40.673195 -1.4315428 -71.323235
40.27858 -0.69354796 -71.788582
40.268089 0.0025158527 -71.772415
40.236752 0.7098366 -71.751076
40.198914 1.4064947 -71.730721
40.570488 2.127527 -71.267029
40.062561 3.4933801 -71.724068
40.418228 4.2748508 -71.273682
40.371342 4.9824657 -71.302551
39.774559 6.9485841 -71.867317
39.723232 7.6265526 -71.932587
40.517128 8.7251606 -71.115616
40.504406 9.4535742 -71.234192
40.442932 10.167397 -71.310837
40.272621 11.578004 -71.476662
39.789906 11.997704 -72.064659
39.647587 12.699327 -72.129013
40.061359 14.686168 -71.263969
39.524521 15.076393 -71.839119
39.398918 15.752669 -71.970741
39.687229 16.802643 -71.656311
39.74509 18.588486 -71.445969
38.674133 -21.99667 -72.814827
39.659161 -22.289724 -71.882744
38.773132 -19.5333 -72.724625
38.988842 -18.854906 -72.622414
39.144844 -18.175699 -72.488159
39.288101 -17.489712 -72.346321
39.775875 -17.189831 -71.757957
39.490448 -16.106108 -72.040405
39.170826 -15.051774 -72.30899
38.86277 -14.025664 -72.610413
39.320824 -13.676822 -72.016167
39.06321 -12.672373 -72.399033
39.227711 -11.988229 -72.356644
39.331738 -11.298653 -72.277603
39.055004 -10.372867 -72.668251
39.161797 -9.6936302 -72.618431
39.227348 -9.0112429 -72.544518
39.292561 -8.3241568 -72.478653
39.35244 -7.6352768 -72.414207
39.367237 -6.9451094 -72.320244
39.372562 -6.2548213 -72.228111
39.113083 -4.7724385 -72.676659
39.368435 -2.738179 -72.733963
39.468052 -1.3702667 -72.746796
39.892506 -0.69770795 -72.25605
39.4739 -0.0060062674 -72.721794
39.808327 1.3880444 -72.210526
39.367207 2.0562067 -72.658539
39.282413 3.4242926 -72.67054
39.232769 4.1080546 -72.68351
39.54834 4.8684177 -72.214287
39.486103 5.5615368 -72.236343
39.372433 6.9458847 -72.321274
39.736294 7.8296204 -71.92411
39.302975 8.3137379 -72.486916
39.974155 10.89805 -71.847366
39.891853 11.584511 -71.932991
39.38419 11.990052 -72.485634
39.267853 12.683043 -72.56723
39.282944 14.348975 -72.179405
39.533154 15.364614 -71.792664
39.029202 15.73945 -72.405533
39.296749 16.802788 -72.072754
38.812145 17.081244 -72.692459
38.867886 18.853453 -72.522224
38.321247 -22.65394 -73.60347
38.815636 -22.506641 -72.979492
38.009186 -20.873085 -73.418648
38.681984 -19.944727 -72.684654
38.588787 -18.848707 -73.06739
39.106064 -18.571795 -72.485085
38.65728 -17.095711 -73.33577
38.346336 -16.019028 -73.591751
39.10807 -16.116385 -72.524117
38.095398 -13.688704 -73.501709
38.53706 -13.344918 -72.936394
39.029327 -12.953053 -72.376816
38.470226 -11.702637 -73.283813
38.934223 -11.288595 -72.73597
38.714043 -10.356577 -73.175751
39.134766 -9.8858137 -72.604042
38.843449 -8.9950647 -73.016167
38.550137 -8.121439 -73.424866
38.959705 -7.6227446 -72.867722
38.59396 -6.7789969 -73.273613
38.601162 -6.1039004 -73.185928
38.656876 -5.4287663 -73.149612
38.817924 -4.0782824 -73.146538
39.326134 -3.443891 -72.679039
38.976852 -2.7234964 -73.18248
39.033932 -2.0449605 -73.195572
39.490608 -1.3842144 -72.718552
39.112656 -0.6837579 -73.219582
39.484081 0.0034703852 -72.704002
39.386101 1.3717445 -72.662148
38.957829 2.0414605 -73.129951
38.924614 2.721647 -73.136696
38.893288 3.4020121 -73.153854
38.793282 4.7594266 -73.18998
38.734364 5.4361882 -73.216125
38.529819 7.4392924 -73.328255
38.462482 8.1096172 -73.388222
38.383759 8.770505 -73.436462
38.705833 11.02404 -73.327675
38.995316 11.983545 -72.943123
38.881073 12.664875 -73.02951
38.413235 13.040998 -73.576111
38.451649 14.704674 -73.25428
38.615337 15.710666 -72.866119
38.194893 16.057886 -73.454659
38.421341 17.084824 -73.163979
38.311466 17.749964 -73.323898
38.883499 19.271914 -72.565437
38.380016 19.523024 -73.174149
37.343342 -22.169218 -74.397652
37.774139 -21.976772 -73.753426
37.318844 -20.382524 -74.465157
37.469627 -19.741482 -74.319824
37.861305 -18.413248 -74.089012
38.321716 -18.162621 -73.495384
38.160961 -17.078535 -73.842056
37.886745 -16.021788 -74.111
37.55048 -14.98543 -74.34391
37.585964 -14.330283 -74.178207
37.632565 -13.680903 -74.035286
37.566254 -12.073233 -74.359833
37.707455 -11.430394 -74.307983
37.82682 -10.773224 -74.257782
38.339684 -9.6561823 -73.655746
38.406406 -8.9900084 -73.585037
38.126411 -8.1085634 -73.984962
37.823322 -7.2613616 -74.394699
38.17416 -6.7656035 -73.810051
37.89967 -5.2963772 -74.204147
37.915524 -4.6372294 -74.155235
37.979221 -3.9788523 -74.148666
38.043381 -3.3216815 -74.152306
38.521931 -2.7002635 -73.68502
38.592621 -2.0265689 -73.708107
38.644367 -1.3432523 -73.731094
38.276882 -0.67284393 -74.225502
38.66853 -0.0051871659 -73.738899
38.26638 0.66970491 -74.217239
38.233669 1.3255515 -74.199516
38.20871 1.99656 -74.20697
38.176144 2.6617181 -74.209343
38.491146 3.3728561 -73.717873
38.095657 3.9968815 -74.230286
38.041874 4.6612225 -74.248917
38.32608 5.4030108 -73.759125
38.267784 6.0885887 -73.791977
37.795681 6.6217203 -74.282005
38.056667 7.4455128 -73.810097
37.891312 9.4344139 -74.036919
37.897263 10.096494 -74.174728
37.86235 10.745864 -74.290291
38.561459 11.96938 -73.488304
38.432522 12.652158 -73.571571
37.988327 13.028431 -74.12368
37.864151 13.69507 -74.203827
38.319656 14.974606 -73.331886
37.675961 15.025018 -74.431656
37.649632 16.690672 -74.140633
37.872578 17.740948 -73.842773
37.601891 19.079502 -74.135834
36.894524 -22.14994 -74.903198
36.6791 -21.034252 -75.124649
36.894047 -20.375654 -75.002632
36.82021 -19.293316 -75.36525
37.553173 -19.474936 -74.247948
37.15052 -17.981098 -75.110649
37.57579 -17.740194 -74.513969
37.713707 -17.051998 -74.370934
37.085754 -15.637443 -75.079483
37.123634 -14.983679 -74.904083
37.178268 -14.337408 -74.751518
36.955387 -13.33639 -75.10994
37.33231 -13.013217 -74.51284
37.198891 -12.057457 -74.957993
37.301182 -11.40283 -74.881599
37.125031 -10.516604 -75.327957
37.227604 -9.8588104 -75.27253
37.587894 -9.4316912 -74.685867
37.698723 -8.1103039 -74.543571
37.428032 -7.2550659 -74.974327
37.45612 -6.5999732 -74.904228
37.485699 -5.9434252 -74.844269
37.490826 -5.2839513 -74.773178
37.169544 -4.5150466 -75.210785
37.546394 -3.9622931 -74.687508
37.223087 -3.2423944 -75.146004
37.373276 -1.9588833 -75.203278
37.43372 -1.315722 -75.227943
37.841938 -0.65892953 -74.761971
37.491718 -0.0044197692 -75.259399
37.84248 0.66116101 -74.762611
37.786652 1.9828821 -74.756859
37.627552 4.6227441 -74.813309
37.549889 5.2806854 -74.8209
37.808849 6.0573182 -74.33606
37.358494 6.5952396 -74.834335
37.27319 7.2497673 -74.861031
37.128704 8.5470257 -74.960281
37.088074 9.1906195 -75.044579
37.835316 10.356841 -74.246002
37.070114 10.481225 -75.288979
37.727261 11.699529 -74.481064
37.660233 12.357736 -74.599808
37.259525 12.706342 -75.176842
37.174156 13.361686 -75.28067
37.071304 14.010171 -75.381248
37.260788 14.998577 -75.015289
37.393837 15.993701 -74.614929
37.243706 16.656576 -74.718491
37.12606 17.32494 -74.857697
36.973099 17.981285 -74.977058
36.84343 18.625311 -75.130135
37.014652 19.715164 -74.829636
36.510117 -22.790228 -75.701317
36.983486 -22.586365 -75.023148
36.617786 -21.411333 -75.127426
36.198429 -19.915497 -75.947739
36.611576 -18.619257 -75.727585
36.438896 -17.56181 -76.06562
36.553482 -16.917946 -75.909126
36.638367 -16.274199 -75.739433
36.684364 -15.627842 -75.556816
36.475979 -14.607107 -75.920029
36.317574 -13.01029 -76.146904
36.703461 -12.690396 -75.531235
36.932518 -11.379806 -75.391556
36.74279 -10.48834 -75.831177
36.844521 -9.8424301 -75.769691
36.965076 -8.5466948 -75.616821
37.015938 -7.9005938 -75.550392
37.066925 -7.2513614 -75.492256
36.771782 -6.4321156 -75.917511
36.770462 -5.7929592 -75.836807
36.77697 -5.1546941 -75.764946
36.805481 -4.5118842 -75.722282
37.155186 -3.9555492 -75.203583
36.87373 -3.2255361 -75.672371
37.339954 -1.9562234 -75.210297
37.444614 -0.6455918 -75.243362
37.080921 0.64538419 -75.726456
37.433094 1.3244489 -75.260147
37.055092 1.9405785 -75.740211
37.050289 2.587908 -75.767532
37.357327 3.2834055 -75.294617
36.987373 3.8820434 -75.808159
37.288738 4.595355 -75.345566
37.062023 5.9176183 -75.318306
36.661495 6.4320683 -75.832031
36.546906 7.067502 -75.825554
36.497662 7.6984992 -75.889481
36.441906 8.3226748 -75.947235
36.744694 9.8350945 -75.68811
37.027225 10.753167 -75.31855
36.627193 11.741714 -76.03019
37.214828 13.000923 -75.197365
36.802307 13.343062 -75.775993
36.692303 13.99796 -75.882484
36.738247 15.620937 -75.589912
36.74781 17.294596 -75.33754
36.292336 17.556816 -75.925552
36.449223 18.607939 -75.589874
36.344704 19.253164 -75.762962
36.219292 19.887545 -75.943169
35.593765 -22.916716 -76.738853
36.144318 -22.739304 -76.159904
35.808735 -19.870378 -76.388573
36.054668 -19.236685 -76.307205
36.382061 -17.954769 -76.043625
36.557236 -17.302595 -75.938118
36.368839 -15.62631 -76.07959
35.813263 -14.230773 -76.900238
35.931595 -13.629182 -76.791389
36.037357 -13.010854 -76.691826
36.365883 -12.668925 -76.039825
36.464172 -12.009889 -75.950928
36.557724 -11.363679 -75.87487
36.369659 -10.465528 -76.315109
36.077881 -9.5971661 -76.698723
36.228107 -8.3326378 -76.573441
36.616436 -7.8946157 -76.041786
36.709446 -6.5994611 -75.917267
36.10215 -5.6413426 -76.841476
36.404709 -5.1381273 -76.26667
36.448444 -3.8578722 -76.186707
36.154888 -3.1447322 -76.653549
36.242538 -1.8937978 -76.658897
36.284241 -1.2710601 -76.669708
36.329533 -0.0048618824 -76.69088
36.685493 0.64539456 -76.205688
36.720482 1.2904031 -76.246216
36.694916 2.5707085 -76.277412
36.230122 3.7956312 -76.779449
36.151039 4.4113345 -76.767006
36.077503 5.0392566 -76.777107
35.990612 5.658062 -76.777222
36.261532 6.4197426 -76.306999
36.209297 7.0580649 -76.357658
36.133392 7.6922712 -76.398125
36.103191 8.3232822 -76.482185
36.067616 8.9541111 -76.57151
36.047138 9.5746212 -76.682159
36.308662 11.109903 -76.419228
36.265545 11.744644 -76.541283
36.537033 12.684756 -76.173286
36.748211 13.641358 -75.786537
36.291851 13.965274 -76.344383
36.165314 14.610126 -76.447189
36.012703 15.249416 -76.537102
36.232136 16.247366 -76.201508
36.07798 16.891159 -76.30687
36.242687 17.938961 -75.963196
35.627453 18.789234 -76.677673
35.791344 19.873766 -76.388657
34.642109 -20.633644 -77.622742
34.993412 -19.393282 -77.330498
35.570457 -19.194391 -76.779213
35.079712 -17.725443 -77.600105
35.382236 -16.483715 -77.354042
35.518192 -15.85683 -77.227028
35.639534 -15.228032 -77.103378
35.358589 -14.237248 -77.425255
35.911636 -13.332657 -76.753799
35.750549 -11.71882 -77.011017
35.541271 -10.196932 -77.302147
35.258598 -9.3532686 -77.698624
35.347565 -8.7294292 -77.647202
35.778641 -8.3076954 -77.113747
35.484959 -7.4896483 -77.531837
35.890999 -7.0596566 -77.002457
35.662308 -5.6344666 -77.400391
35.684708 -4.3860078 -77.28714
35.455109 -3.0703068 -77.752274
35.778656 -2.5059066 -77.221222
35.502525 -1.8564008 -77.728134
35.51582 -1.2400526 -77.721321
35.88385 -0.62623239 -77.235779
35.926617 0.62827295 -77.267975
35.584869 1.2404188 -77.792915
35.936241 1.8834546 -77.309059
35.524059 2.4697931 -77.794456
35.77634 3.7610819 -77.298859
36.079929 4.4693065 -76.817299
35.615269 5.0076714 -77.292038
35.541328 5.6310177 -77.306946
35.467659 6.2520318 -77.330383
35.357155 8.1013336 -77.536171
35.335884 8.7092209 -77.627777
35.303967 9.3171053 -77.727005
35.954971 10.480617 -76.861351
35.567474 10.819206 -77.464203
35.854427 11.732081 -77.086983
35.40062 12.063309 -77.656998
35.598911 12.990645 -77.227066
35.111229 13.306967 -77.794533
35.728672 14.568487 -76.952484
35.173939 14.862662 -77.470451
35.415398 15.850963 -77.143936
34.920715 16.076345 -77.700607
34.999783 17.712662 -77.506683
34.823006 18.330952 -77.621895
35.357594 19.847761 -76.925697
34.965565 20.012154 -77.561653
34.012573 -22.929296 -78.109695
33.836224 -21.814409 -78.337395
34.048973 -21.206432 -78.200439
34.229366 -20.597179 -78.045433
34.12257 -19.530315 -78.389595
34.165226 -17.869846 -78.619324
34.658306 -17.698669 -78.018318
34.83123 -17.087084 -77.907829
34.137486 -15.638612 -78.608505
34.269909 -15.059149 -78.501724
35.215679 -15.210326 -77.493896
34.54298 -13.872082 -78.301712
35.087627 -13.604466 -77.776253
34.379555 -12.331563 -78.566986
34.547478 -11.145141 -78.35553
35.02607 -10.791559 -77.810501
34.747284 -9.9347143 -78.21447
34.842983 -9.3222294 -78.1558
35.316669 -8.9178162 -77.649361
34.710709 -7.9096808 -78.565834
34.822048 -6.6941919 -78.452599
35.257404 -5.6240449 -77.88028
35.366577 -3.7484155 -77.776917
35.107719 -3.0561051 -78.286903
35.475227 -1.866465 -77.749878
35.498615 -1.2390051 -77.743469
35.497433 -0.62256807 -77.727005
35.172615 0.0010223752 -78.234779
35.186417 0.6154632 -78.254318
35.189346 1.229609 -78.26796
35.542362 1.8653527 -77.780411
35.114735 2.4499226 -78.264877
35.453552 3.1122658 -77.777687
35.310925 4.358201 -77.770699
35.217796 4.9792385 -77.765633
34.782715 5.4855175 -78.267921
34.723549 6.0854826 -78.299667
35.032085 6.8612876 -77.863777
35.012234 7.482749 -77.946579
35.004536 8.0977535 -78.047668
35.305111 8.9494839 -77.648598
35.260101 9.5886097 -77.725067
35.232872 10.202184 -77.837395
35.161701 10.813317 -77.926338
35.089699 11.430325 -78.021675
34.974998 12.045697 -78.09568
34.461918 12.346752 -78.63958
35.277348 14.530087 -77.377594
34.393719 14.478519 -78.387383
34.275002 15.063355 -78.497864
34.73827 17.08712 -77.850227
34.280262 17.259296 -78.448769
34.453205 18.310427 -78.118515
34.611382 19.999033 -78.080261
33.216698 -22.377186 -78.928307
33.419125 -21.767805 -78.779564
33.421036 -20.68746 -79.171768
33.730724 -19.496387 -78.847
33.604446 -18.444389 -79.203178
34.42358 -18.698793 -78.117867
33.495983 -16.810753 -79.340065
33.612396 -16.229765 -79.192963
34.245438 -15.448289 -78.48378
34.372047 -14.826269 -78.358231
34.1199 -13.848773 -78.722824
33.956474 -12.320043 -78.993195
34.045288 -11.720821 -78.888596
33.77512 -10.857442 -79.289398
34.230934 -10.509678 -78.72271
33.978317 -9.6740341 -79.160019
34.309933 -7.889483 -79.04734
34.388779 -7.2863536 -79.003845
34.787224 -6.8417788 -78.464714
34.488689 -6.0782275 -78.898018
34.527832 -5.4741788 -78.850655
34.291462 -4.1697454 -79.299248
34.745522 -3.0466359 -78.789818
34.389042 -2.3869383 -79.257767
34.784912 -1.8253485 -78.752167
34.783756 -1.2156364 -78.731575
34.79158 -0.60855126 -78.724129
34.808159 -0.0028299305 -78.731865
34.416153 1.2067183 -79.216583
34.274765 2.9840386 -79.199677
34.595333 3.646147 -78.709404
34.17728 4.1670156 -79.219711
34.109936 4.7524028 -79.21611
34.067467 5.3358068 -79.25061
34.333588 6.0716605 -78.776688
34.251129 7.2770238 -78.890884
34.266376 7.8741817 -79.002289
34.600475 8.7040854 -78.629723
34.479641 9.9218559 -78.779999
34.037426 10.262924 -79.320694
34.695362 11.407223 -78.476952
34.178326 11.727796 -78.993233
34.027588 12.322422 -79.040543
34.269592 13.241919 -78.645714
34.497543 14.185215 -78.251122
34.009518 14.454346 -78.834785
33.8811 15.053003 -78.940285
33.766834 15.643055 -79.063614
33.673531 16.220396 -79.212257
33.776752 17.846695 -79.054993
33.669014 18.434721 -79.221283
34.240479 19.974182 -78.557213
32.765316 -22.942905 -79.446022
32.91872 -22.325243 -79.259262
32.940086 -21.266645 -79.628082
33.322483 -20.077452 -79.364502
33.178783 -19.016676 -79.673256
33.078999 -17.391005 -79.80336
33.934658 -17.648962 -78.757278
33.197449 -14.647063 -79.720688
33.338768 -14.074059 -79.623917
33.459202 -13.491076 -79.524597
33.197216 -12.578547 -79.885513
33.66256 -12.303455 -79.311188
33.749256 -11.700657 -79.211319
33.597076 -10.242964 -79.560028
34.033024 -9.8871346 -78.995621
34.14687 -9.2792406 -78.949615
33.630928 -8.2782202 -79.961967
34.118839 -7.269959 -79.365005
33.835304 -6.5172086 -79.817261
34.212139 -6.0668993 -79.262421
34.459202 -3.0427513 -79.14801
34.463127 -2.4251065 -79.105507
34.131081 -1.7844188 -79.603012
34.134789 -1.1912369 -79.586349
34.169247 -0.59671587 -79.599785
34.166687 0.00016412332 -79.594666
34.510719 0.59854108 -79.088448
34.441872 1.801551 -79.074905
34.411823 2.4178705 -79.073463
34.345665 3.0250318 -79.057938
33.888245 4.1503263 -79.573151
33.820171 4.7369041 -79.580193
33.669895 6.4952154 -79.684319
33.976273 7.8710303 -79.366508
33.586468 8.2448416 -79.925026
34.238091 9.312417 -79.054131
33.824619 9.6520786 -79.603943
34.078308 10.506077 -79.181831
33.730896 12.307928 -79.381958
33.593876 12.900311 -79.45076
33.457226 13.48987 -79.529701
33.352283 14.077374 -79.642418
33.248089 14.653312 -79.758202
33.725056 16.653391 -79.114723
33.616989 17.244934 -79.269508
33.48275 17.835821 -79.408066
33.713669 18.892664 -79.146446
33.314861 18.997538 -79.772675
33.522812 20.087881 -79.532326
32.231979 -22.417269 -80.455803
32.394085 -21.817154 -80.291313
32.594395 -21.23056 -80.153923
32.537361 -20.159578 -80.490379
32.812698 -18.996759 -80.16613
32.578316 -17.951122 -80.426163
32.447697 -16.356621 -80.554634
32.561657 -15.785858 -80.415558
33.057255 -15.628621 -79.836563
32.461994 -14.250128 -80.643227
32.558952 -13.688061 -80.522209
33.019932 -13.468174 -79.942841
32.796638 -12.551527 -80.342186
32.880337 -11.97003 -80.235931
32.625355 -11.107018 -80.628174
32.758869 -10.548084 -80.585495
33.144791 -8.8177767 -80.490173
33.590725 -8.4352369 -79.948082
33.320274 -7.6628833 -80.400719
33.743183 -7.2345643 -79.842377
33.816422 -6.6400275 -79.804367
33.484631 -5.904088 -80.243439
33.13208 -5.1742554 -80.671631
33.146667 -4.5998693 -80.612175
33.191624 -4.0268788 -80.588066
33.645084 -3.5501349 -80.106911
33.673477 -2.9602795 -80.083687
33.705383 -2.3685713 -80.07196
33.345524 -1.7424017 -80.552475
33.767315 -1.1791736 -80.075089
33.393887 -0.58238226 -80.554604
33.783527 -0.00075418048 -80.068657
33.383995 0.58479428 -80.548454
33.34465 1.1724846 -80.529663
33.269012 2.3145916 -80.515465
33.596222 2.9517531 -80.026649
33.571995 3.5402665 -80.0495
33.141022 4.0393171 -80.538086
32.994431 5.7466807 -80.619728
33.639793 6.6571012 -79.687508
33.269093 7.0692391 -80.24781
33.246468 7.651876 -80.329979
33.22588 8.2328176 -80.420967
33.155106 8.8054037 -80.481361
33.437119 9.6381302 -80.073883
32.974228 9.9768114 -80.602234
33.087025 11.394413 -80.230743
32.95121 11.974721 -80.287292
32.827354 12.550332 -80.360771
32.704281 13.122573 -80.440056
32.975395 14.060904 -80.10199
32.892681 14.642653 -80.237129
32.806629 15.221172 -80.377457
33.048939 16.214996 -80.065414
33.305927 19.509165 -79.871971
31.901346 -21.276907 -81.232407
32.226654 -20.136988 -80.913353
32.632282 -20.038078 -80.288055
32.190884 -18.504944 -81.030899
32.603191 -18.395592 -80.402504
32.04332 -16.909399 -81.12542
32.137119 -16.345469 -80.966263
32.23317 -15.778916 -80.814667
32.026764 -14.799027 -81.149734
32.130165 -14.239921 -81.0382
32.228966 -13.676045 -80.926437
32.669006 -13.455255 -80.328117
32.451843 -12.524151 -80.742416
32.543041 -11.939371 -80.64283
32.330093 -11.082777 -81.062073
32.58308 -9.9464426 -80.975021
32.707493 -9.3733702 -80.939819
33.15797 -9.0043249 -80.396118
32.54398 -8.0208797 -81.353493
32.979225 -7.6385136 -80.79689
33.055847 -7.0510688 -80.750931
32.73317 -6.3167534 -81.207802
32.773811 -5.7433643 -81.156479
33.187786 -4.7258825 -80.539749
32.844086 -4.0226169 -80.995468
33.272717 -3.5422668 -80.482727
32.900723 -2.876508 -80.943565
33.356487 -2.3558681 -80.464996
33.003136 -1.1525396 -80.940918
33.038948 0.57653874 -80.958336
33.020645 1.1539854 -80.955513
32.986038 1.72865 -80.947929
33.300476 2.3409953 -80.435951
32.902287 2.8772702 -80.945099
32.857239 3.4514983 -80.953033
32.802223 4.0237918 -80.961716
32.753662 4.5948181 -80.982498
32.691074 5.1642847 -81.000809
32.644512 5.7338576 -81.038918
32.968685 6.4807401 -80.604507
32.553837 7.9951887 -81.341599
32.824184 8.7993574 -80.91008
32.645206 9.9513874 -81.028069
32.849922 10.772234 -80.569221
32.717022 11.360755 -80.621483
32.264954 11.650919 -81.175552
32.161549 12.208418 -81.251892
32.30949 13.680429 -80.997726
32.252327 14.248556 -81.144234
32.188717 14.80442 -81.293671
32.31411 16.345186 -81.108887
32.840229 17.833313 -80.378159
32.13406 19.069113 -81.253304
31.056929 -22.358908 -81.956772
31.555346 -22.320684 -81.397079
31.210388 -20.728596 -82.139908
31.672943 -20.680393 -81.542717
31.334377 -18.558203 -82.088043
32.117367 -18.953917 -81.075806
31.88121 -17.913086 -81.308861
31.31216 -16.451237 -82.026474
31.747097 -16.333458 -81.43055
31.857513 -15.761348 -81.309822
31.373264 -14.396891 -82.131912
31.762867 -14.231075 -81.544098
32.171688 -14.050674 -80.943764
31.96454 -13.076694 -81.328911
31.751858 -12.185259 -81.712105
31.493113 -11.328419 -82.089363
31.923605 -11.050927 -81.526085
31.7122 -10.223457 -81.967232
31.834145 -9.6633015 -81.927994
32.431759 -8.7763481 -81.361977
32.524422 -8.1936426 -81.32048
32.616863 -7.6132741 -81.275703
32.271999 -6.8606181 -81.697739
32.333275 -6.2931724 -81.651451
31.986557 -5.0195746 -82.032852
32.029892 -3.9047878 -81.932121
32.055962 -3.3497717 -81.895943
32.487537 -2.8669732 -81.385208
32.147747 -2.2385094 -81.886986
32.192944 -1.6867729 -81.899948
32.646633 -0.56809729 -81.416542
32.237267 -0.003807931 -81.899246
32.253059 0.55843753 -81.910545
32.649509 1.1365179 -81.439163
32.248486 1.689006 -81.932602
32.209213 2.2409222 -81.923782
32.513699 2.8619945 -81.417076
32.373795 4.5833473 -81.460846
31.97077 5.0128193 -81.97905
31.948986 5.5654397 -82.029808
32.264198 6.2945085 -81.599792
32.5886 7.0526061 -81.176445
32.207653 7.4244633 -81.740303
32.166836 7.9859862 -81.812317
32.43557 8.7867289 -81.379318
32.262928 9.9211378 -81.495094
31.81642 10.237321 -82.033813
31.996376 11.055184 -81.576515
31.562038 11.334365 -82.127541
31.786011 12.186962 -81.732063
32.338875 13.446053 -80.854195
31.588758 13.302691 -81.930962
31.485954 13.844229 -82.035316
32.159321 15.203427 -81.320457
32.3638 16.201483 -80.982147
31.60043 15.892859 -82.01902
31.836554 16.901272 -81.731712
31.559238 17.996258 -81.992348
31.526487 19.614008 -81.809128
30.305229 -24.543474 -82.463768
30.784016 -20.698086 -82.560585
30.610834 -19.63176 -82.806358
30.673454 -17.516861 -82.750397
30.77681 -16.975525 -82.599434
30.900166 -16.431328 -82.47261
30.738779 -15.460636 -82.815399
31.178131 -15.325283 -82.262688
30.998409 -14.375579 -82.614853
30.881878 -12.916748 -82.871529
30.9643 -12.388139 -82.765488
31.029696 -11.840972 -82.650284
31.224888 -10.745425 -82.497322
31.056246 -9.383955 -82.846992
31.142765 -8.8419647 -82.795822
31.23488 -8.3004417 -82.751663
31.719912 -7.9698529 -82.234306
31.79739 -7.4013801 -82.182518
31.874598 -6.8382268 -82.145134
31.514088 -6.1092076 -82.568909
31.562138 -5.5576959 -82.523209
31.607222 -4.4508629 -82.410431
31.642092 -3.8960006 -82.379059
31.666691 -3.339494 -82.349045
31.715633 -2.7838125 -82.347946
31.385273 -2.1782553 -82.848343
31.423386 -1.6388015 -82.850845
31.825066 -1.1123103 -82.35479
31.835207 -0.55573493 -82.349609
31.854818 0.0027273491 -82.361214
31.856245 1.671939 -82.404373
31.498177 2.1742778 -82.921005
31.370655 3.2582293 -82.888451
31.633648 3.8927119 -82.384789
31.988367 4.570498 -81.951317
31.571447 5.0056334 -82.457428
31.892054 6.2895436 -82.106911
31.512419 6.6544867 -82.645187
31.448496 7.7488995 -82.790039
31.707663 8.5337076 -82.355888
31.965557 9.3263712 -81.930466
31.565353 9.648716 -82.489876
31.447861 10.203063 -82.534096
31.296387 10.75243 -82.558418
31.493702 11.590571 -82.127502
31.075193 11.848823 -82.693542
31.281567 12.719576 -82.293617
31.178762 13.276767 -82.389511
31.078114 13.829909 -82.498344
31.393785 14.786608 -82.220428
31.315313 15.342585 -82.371292
31.217077 15.889836 -82.510338
31.438744 16.8988 -82.210762
30.956821 16.967674 -82.758034
31.145161 18.000429 -82.459938
30.770119 19.089109 -82.674072
30.049328 -23.39847 -82.944389
30.35026 -21.224781 -82.898537
30.563648 -20.682688 -82.773735
31.107513 -20.642361 -82.233894
30.691553 -18.531681 -82.732903
30.469233 -17.507858 -82.988708
30.899284 -17.433662 -82.410187
30.693657 -16.419527 -82.706291
30.535849 -15.449659 -83.050476
30.685495 -14.910117 -82.962059
30.508585 -13.968139 -83.318001
30.615639 -13.439772 -83.222176
30.696297 -12.906736 -83.109016
31.084055 -12.709386 -82.529892
30.84182 -11.828391 -82.890854
31.257879 -11.57829 -82.322174
30.674004 -10.441567 -83.203804
30.773315 -9.9047241 -83.13559
30.851002 -9.3688402 -83.073112
31.318338 -9.0735149 -82.535378
31.517517 -7.9614711 -82.443428
31.187376 -7.1989222 -82.870682
31.266403 -6.6512299 -82.834915
30.907839 -5.9283395 -83.264435
30.927414 -5.3933382 -83.207291
30.962484 -4.8644032 -83.158104
31.414728 -4.443656 -82.625481
31.084488 -3.251627 -83.077042
31.580564 -2.2217927 -82.586571
31.231678 -1.6340555 -83.083153
31.254078 -1.0898988 -83.085159
31.654081 -0.554461 -82.586601
31.668537 0.0066698645 -82.590805
31.304798 0.5400272 -83.113029
31.702488 1.1155164 -82.635345
31.676523 1.667279 -82.638802
31.649031 2.2271423 -82.646278
31.588034 2.7797608 -82.636353
31.110529 3.7907708 -83.126595
31.429338 4.4438529 -82.665108
30.969812 5.3890052 -83.212921
30.971893 5.9201674 -83.290649
31.662001 6.8574705 -82.397224
31.293903 7.2009521 -82.948708
31.596464 7.976274 -82.539604
31.145266 8.8467569 -83.164085
31.387205 9.6355515 -82.725739
30.96117 9.9330912 -83.283508
30.815828 10.466935 -83.302376
30.999527 11.285684 -82.851173
30.878582 11.832426 -82.913376
31.084471 12.703039 -82.510429
30.627279 12.912093 -83.05629
30.539614 13.44543 -83.169075
31.119762 15.343247 -82.583397
31.027124 15.889565 -82.7314
30.885889 16.431601 -82.842125
31.092857 17.452271 -82.541374
30.616848 17.492598 -83.103363
30.569328 19.079357 -82.884941
29.391592 -24.427092 -83.825798
29.508184 -23.913734 -83.611404
29.407167 -22.781271 -83.808113
29.576944 -22.267109 -83.649963
29.422813 -21.169891 -83.852226
30.198725 -21.739729 -82.891502
29.569704 -19.078682 -83.793182
30.06399 -19.04273 -83.283257
29.909195 -18.022314 -83.565964
29.760031 -17.016451 -83.867943
29.887308 -16.492226 -83.747192
29.891172 -15.005763 -83.977707
30.285204 -14.886787 -83.437965
30.41692 -14.346744 -83.349792
30.5119 -13.807928 -83.246452
30.314577 -12.892387 -83.594002
30.383434 -12.354039 -83.4814
30.477177 -11.806452 -83.384155
30.201933 -10.950367 -83.74379
30.294727 -10.419849 -83.670715
30.73946 -10.171313 -83.123543
30.460308 -9.3500061 -83.525169
30.15135 -8.5617981 -83.926399
30.208485 -8.0363264 -83.854919
30.274097 -7.5066705 -83.797874
30.788313 -7.1784792 -83.315758
30.844852 -6.6325121 -83.259636
30.502054 -5.9173307 -83.70005
30.980284 -4.981812 -83.112755
30.608887 -4.3098459 -83.568634
30.652002 -3.7722619 -83.546326
30.70933 -3.2350409 -83.544044
30.753414 -2.6944356 -83.537575
30.409443 -2.1167467 -84.032928
30.447113 -1.593082 -84.033165
30.485491 -1.063606 -84.041885
30.889425 -0.53899992 -83.557205
30.903069 0.0013880486 -83.565826
30.920576 0.54087824 -83.58358
30.55197 1.5749253 -84.119926
30.903008 2.1623983 -83.627068
30.705381 3.7759306 -83.594147
30.653736 4.3122287 -83.6092
30.606466 4.8491831 -83.635155
30.565968 5.3835144 -83.673538
30.553902 5.9161358 -83.741035
30.894178 7.1918135 -83.42762
30.507864 7.5116334 -83.981735
30.824678 8.279109 -83.579086
30.769896 8.8209562 -83.652435
31.016151 9.6021843 -83.223389
30.87019 10.160477 -83.2575
30.426733 10.431375 -83.777367
30.147522 11.492115 -83.849739
30.343243 12.33966 -83.452362
30.228426 12.88522 -83.531654
30.103199 13.419858 -83.611794
30.027018 13.951654 -83.734787
30.310143 14.89823 -83.453583
30.229979 15.436426 -83.595993
29.999239 16.478601 -83.84359
29.882681 16.98806 -83.971481
30.057724 19.604355 -83.541176
29.924767 20.131681 -83.698006
29.295118 -25.592289 -84.330978
29.032333 -24.424639 -84.370247
28.873072 -23.286501 -84.507278
28.982895 -22.776371 -84.307487
28.878412 -21.667068 -84.507423
28.905739 -20.086605 -84.581352
28.906126 -18.547291 -84.686897
29.054468 -18.031223 -84.576904
29.188461 -17.513336 -84.456467
29.127579 -16.541571 -84.780891
29.768396 -16.927504 -83.807678
29.632454 -15.931236 -84.15432
29.620754 -14.464604 -84.398102
29.996288 -14.325278 -83.846764
29.515266 -13.027244 -84.618599
29.603395 -12.508134 -84.527077
29.981781 -12.341208 -83.994751
29.746159 -11.466703 -84.332214
29.482708 -10.611748 -84.687668
29.53829 -10.098881 -84.594391
29.969213 -9.8732882 -84.055603
29.667484 -9.0644102 -84.441895
29.725109 -8.5418911 -84.367561
29.781368 -8.016181 -84.295349
29.473392 -7.2755857 -84.712936
29.560265 -6.7643876 -84.681877
29.635006 -6.2502875 -84.647873
30.182526 -4.8302383 -84.077118
29.840719 -4.181818 -84.5271
30.269953 -3.7471342 -84.025513
29.935167 -3.1414156 -84.501854
29.973082 -2.6199121 -84.490822
30.446434 -1.5968138 -84.013176
30.493301 -0.5347423 -84.031593
30.507351 0.0054402691 -84.048439
30.519161 0.54601967 -84.05146
30.54254 1.0820893 -84.076332
30.128439 1.5707688 -84.552559
30.13468 2.0960696 -84.583809
30.092766 2.6195834 -84.583481
30.410238 3.223006 -84.089279
29.90279 4.1841869 -84.571938
29.861523 4.7015333 -84.601112
29.764463 5.725668 -84.661186
29.756672 6.2429714 -84.739334
30.120022 6.9726067 -84.353386
30.49033 7.7290492 -83.991783
30.04108 8.0267658 -84.494568
29.989447 8.5516405 -84.566132
30.274685 9.3335066 -84.173851
29.839165 9.6003151 -84.680237
30.042027 10.406049 -84.260223
29.899052 10.93325 -84.290726
29.499147 11.149447 -84.807716
29.421745 13.026064 -84.54377
29.334415 13.54007 -84.64045
29.856813 14.886348 -83.919991
29.436155 14.981683 -84.435814
29.348017 15.492565 -84.553406
29.589272 16.484627 -84.311226
29.49132 16.999632 -84.443176
29.811424 19.048458 -83.878349
29.475376 19.063797 -84.491257
29.436792 19.57542 -84.686516
28.830194 -25.391153 -85.518723
29.050476 -25.614134 -84.958168
28.369688 -22.658697 -85.425804
28.320553 -21.073402 -85.409843
28.439352 -20.578289 -85.266533
28.659418 -19.553789 -84.966576
28.565731 -18.52141 -85.223557
28.556602 -17.520529 -85.533119
28.67046 -17.022787 -85.424713
28.792444 -16.513784 -85.32534
28.705984 -15.55838 -85.641808
29.018547 -15.486251 -85.11866
29.12859 -14.967875 -85.010361
29.049765 -13.526536 -85.228378
28.894995 -12.628631 -85.564491
29.504412 -12.864993 -84.607437
29.31382 -11.9852 -84.96286
29.055134 -11.108994 -85.274582
29.100855 -10.60234 -85.179253
28.880562 -9.7810555 -85.548599
28.921869 -9.2795401 -85.465546
29.276754 -9.0512514 -84.929649
29.090374 -7.2567973 -85.188278
29.159027 -6.744853 -85.149071
29.232155 -6.2321916 -85.119392
29.302429 -5.7189865 -85.095482
29.356611 -5.2031841 -85.063995
29.099951 -4.5525312 -85.531517
29.138649 -4.0535994 -85.507904
29.510193 -3.6407707 -84.998718
29.250534 -2.038065 -85.443924
29.263577 -1.5275775 -85.43
29.278456 -1.0227356 -85.426949
29.690462 -0.51526779 -84.973206
29.35351 0.50185108 -85.466858
29.362085 2.5425587 -85.55925
29.311028 3.0491626 -85.555855
29.571875 3.6493983 -85.046341
29.127834 4.5504522 -85.568718
29.767231 5.3731365 -84.615318
29.376722 5.7235842 -85.15049
29.357744 6.2375898 -85.214966
29.334105 6.7503328 -85.282227
29.675583 7.4898829 -84.895355
29.19051 8.7873516 -85.566376
29.426569 9.5779057 -85.164597
29.61869 10.375904 -84.75853
29.209114 10.606982 -85.260017
29.11167 11.119774 -85.322273
29.012053 11.630279 -85.381195
28.885382 12.134207 -85.434479
28.789959 12.635542 -85.509827
28.943491 13.520138 -85.168907
28.8633 14.03196 -85.270226
28.76796 14.532064 -85.363869
28.716738 15.019655 -85.495201
29.109241 17.007574 -84.993355
29.010269 17.51387 -85.120262
28.932329 18.015717 -85.269257
28.854866 18.524269 -85.42115
29.153788 19.571615 -85.292549
28.571766 -24.933773 -85.929932
28.120584 -22.655655 -86.066025
28.137241 -22.157921 -85.850113
28.12426 -20.564251 -85.87075
28.054689 -19.512001 -86.101822
28.140917 -19.00959 -85.958771
28.143223 -18.004917 -86.246094
28.258421 -17.502939 -86.147156
28.507637 -17.459606 -85.602684
28.288849 -16.031353 -86.3283
28.560598 -15.983474 -85.802361
28.30337 -14.603185 -86.542137
28.582865 -14.530842 -86.029114
28.406746 -13.614396 -86.319626
28.459549 -13.119989 -86.212662
28.531832 -12.618069 -86.120399
28.348337 -11.721158 -86.433922
28.407585 -11.232173 -86.346581
28.501993 -10.262764 -86.178169
28.845993 -9.5621061 -85.557594
28.901766 -9.0451479 -85.463768
28.393148 -8.0079241 -86.308357
28.407728 -7.5193596 -86.238113
28.461388 -7.0321884 -86.191628
28.50182 -6.5341496 -86.145798
28.561049 -6.0367503 -86.116226
28.613909 -5.5390482 -86.086632
28.665081 -5.0389366 -86.058342
28.727579 -4.5395589 -86.044586
29.129009 -3.623219 -85.51181
28.821487 -3.0301776 -85.969955
28.848848 -2.5251637 -85.954636
28.866684 -2.0201552 -85.937073
28.872314 -1.0082716 -85.901672
28.901125 -0.5026086 -85.913605
29.371078 1.5639076 -85.547752
29.368654 2.0783896 -85.567093
28.978361 2.5301788 -86.048332
29.266918 3.1152065 -85.55558
29.137094 4.1547222 -85.557472
28.776249 4.5398192 -86.075684
28.731119 5.0372691 -86.101433
28.695187 5.5353274 -86.138802
28.971869 6.2358274 -85.711502
28.632349 6.5316501 -86.238495
28.588663 7.0173192 -86.29155
29.241564 7.999527 -85.452553
28.845606 8.2692194 -85.985634
29.110977 9.0522223 -85.603325
29.057194 9.565321 -85.683174
28.963924 10.07898 -85.7407
29.113974 10.883024 -85.325623
28.548567 10.778665 -86.312454
28.483509 11.270322 -86.379715
28.559849 12.114181 -85.992546
28.484285 12.617529 -86.076927
28.420712 13.115685 -86.168159
28.351358 13.612452 -86.251724
28.677374 14.974238 -85.523605
28.372404 15.505603 -86.19001
28.31798 15.984994 -86.308014
28.662975 17.516579 -85.673172
28.41711 17.4753 -86.21669
28.412464 17.939943 -86.385513
28.917051 19.576111 -85.912186
27.957186 -22.656025 -86.739479
27.819139 -21.55003 -86.869438
27.84067 -21.060226 -86.691223
27.77812 -20.000515 -86.881256
27.817558 -19.499184 -86.735283
27.837051 -18.484812 -86.984085
27.9195 -17.988176 -86.869308
28.094738 -17.955023 -86.337631
28.210226 -17.428797 -86.212692
28.044077 -16.015707 -86.9384
28.249153 -15.964285 -86.384445
28.348951 -15.44994 -86.264999
28.255892 -14.51253 -86.604698
27.967953 -12.708059 -87.219818
27.999716 -12.210561 -87.107819
28.249601 -12.109768 -86.581436
28.309315 -11.616222 -86.490303
28.356102 -11.122864 -86.396446
28.165279 -10.260824 -86.744949
28.066628 -8.9670601 -87.028351
28.065115 -8.4842386 -86.953011
28.314001 -8.2532978 -86.428024
28.081413 -7.5074453 -86.804047
28.122164 -7.0149879 -86.7519
28.173418 -6.5206037 -86.708618
28.220222 -6.0255651 -86.666992
28.285444 -5.5285149 -86.643661
28.120602 -4.8749456 -87.104248
28.428968 -4.0258412 -86.56884
28.201817 -3.4232159 -87.029472
28.48756 -3.0143385 -86.523888
28.48777 -2.5026658 -86.478325
28.189945 -1.9627137 -86.951477
28.20927 -1.4708571 -86.939644
28.214846 -0.98252451 -86.927956
28.22275 -0.49684069 -86.925385
28.247459 -0.0098479316 -86.940094
28.256105 0.48758018 -86.950432
28.288616 0.98024517 -86.982277
28.268763 1.4669719 -86.992615
28.622173 2.0151706 -86.541962
28.27146 2.4501045 -87.040329
28.172346 3.904418 -87.069939
28.419968 4.531281 -86.613907
28.370399 5.0344095 -86.63884
28.034267 5.3552828 -87.139076
27.986582 5.8274927 -87.166214
28.237476 6.5232973 -86.752121
28.227644 7.0156202 -86.82608
28.19717 7.5073781 -86.88681
28.157537 8.4795837 -87.036316
28.154558 8.9656811 -87.117706
28.360409 9.7670002 -86.762436
28.111958 9.9305458 -87.282188
