ply
format ascii 1.0
element vertex 778
property float x
property float y
property float z
end_header
35.9506645202636719 -1.88409519195556641 -86.0811004638671875
35.9780693054199219 -1.25638246536254883 -86.081298828125
36.9943656921386719 -0.645739316940307617 -86.0813980102539062
37 6.70088509961870582e-14 -86.0814971923828125
35.9945182800292969 0.628286898136138916 -86.0815963745117188
35.9780693054199219 1.25638246536254883 -86.0817031860351562
36.9492912292480469 1.9364311695098877 -86.0818023681640625
35.9123039245605469 2.51123404502868652 -86.0819015502929688
35.8630104064941406 3.13760805130004883 -86.082000732421875
34.8082656860351562 3.65850472450256348 -86.0820999145507812
34.7391166687011719 4.26542520523071289 -86.0821990966796875
36.6399192810058594 5.14939212799072266 -86.0822982788085938
34.569091796875 5.47521877288818359 -86.0822982788085938
36.4378852844238281 6.42498540878295898 -86.0823974609375
36.3202056884765625 7.05992507934570312 -86.0823974609375
35.2133102416992188 7.48483800888061523 -86.0824966430664062
38.0004310607910156 8.77309894561767578 -86.0826034545898438
35.9009437561035156 8.95110702514648438 -86.0826034545898438
36.7051849365234375 9.83510971069335938 -86.08270263671875
37.4892044067382812 10.7498683929443359 -86.08270263671875
36.3395805358886719 11.1101255416870117 -86.0828018188476562
34.238037109375 11.1246023178100586 -86.0828018188476562
36.8752174377441406 12.697174072265625 -86.0828018188476562
34.7686233520507812 12.6547508239746094 -86.0829010009765625
35.4760589599609375 13.6179771423339844 -86.0829010009765625
36.1601753234863281 14.6096410751342773 -86.0829010009765625
34.9791793823242188 14.8477926254272461 -86.0830001831054688
35.6282730102539062 15.8627281188964844 -86.0830001831054688
35.34600830078125 16.4821014404296875 -86.0830001831054688
35.0529594421386719 17.0964889526367188 -86.0830001831054688
35.6402587890625 18.1596240997314453 -86.083099365234375
35.3179054260253906 18.7788562774658203 -86.083099365234375
35.8594169616699219 19.8771762847900391 -86.083099365234375
42.4352378845214844 24.5000095367431641 -86.083099365234375
42.0011978149414062 25.2368621826171875 -86.0831985473632812
39.8582687377929688 24.9061908721923828 -86.0831985473632812
37.7401657104492188 24.5087699890136719 -86.0831985473632812
38.1357269287109375 25.7228755950927734 -86.0831985473632812
35.2235450744628906 24.6637783050537109 -86.0831985473632812
34.7877197265625 25.2747821807861328 -86.0831985473632812
33.5426864624023438 25.2762374877929688 -86.0831985473632812
33.0964546203613281 25.8577785491943359 -86.0832977294921875
31.0858478546142578 25.1728038787841797 -86.0832977294921875
30.6417694091796875 25.7115135192871094 -86.0832977294921875
30.9430923461914062 26.8984203338623047 -86.0832977294921875
29.7258014678955078 26.7652149200439453 -86.0832977294921875
29.2541370391845703 27.2799472808837891 -86.0832977294921875
28.7735881805419922 27.7863388061523438 -86.0832977294921875
28.2842750549316406 28.2842674255371094 -86.0832977294921875
27.0916900634765625 28.0542392730712891 -86.0832977294921875
27.2799263000488281 29.2541542053222656 -86.0833969116210938
26.7652263641357422 29.7257919311523438 -86.0833969116210938
25.5863113403320312 29.4336643218994141 -86.0833969116210938
26.3542804718017578 31.4078311920166016 -86.0833969116210938
25.1728134155273438 31.0858402252197266 -86.0833969116210938
24.62646484375 31.5204257965087891 -86.0833969116210938
22.2671413421630859 29.5495243072509766 -86.0833969116210938
21.7480487823486328 29.9336338043212891 -86.0833969116210938
20.6487541198730469 29.489471435546875 -86.0833969116210938
19.5717620849609375 29.0163078308105469 -86.0833969116210938
18.5177173614501953 28.5148048400878906 -86.0833969116210938
18.0172824859619141 28.8336181640625 -86.0833969116210938
17.5114192962646484 29.1436138153076172 -86.0833969116210938
22.4999046325683594 38.9711990356445312 -86.0833969116210938
22.3012771606445312 40.2324867248535156 -86.0833969116210938
21.5958595275878906 40.6155014038085938 -86.0833969116210938
20.4294700622558594 40.0953445434570312 -86.0833969116210938
19.7267303466796875 40.4457168579101562 -86.0833969116210938
19.0179862976074219 40.7837753295898438 -86.0833969116210938
14.2356967926025391 31.9741287231445312 -86.0833969116210938
14.4570722579956055 34.0586700439453125 -86.0833969116210938
13.1113567352294922 32.451385498046875 -86.0833969116210938
13.259516716003418 34.5425148010253906 -86.0833969116210938
12.6547622680664062 34.7686195373535156 -86.0833969116210938
12.3717250823974609 35.9296607971191406 -86.0833969116210938
11.7425394058227539 36.1401824951171875 -86.0833969116210938
9.35590553283691406 30.6017494201660156 -86.0833969116210938
8.82050800323486328 30.7603416442871094 -86.0833969116210938
8.02329826354980469 29.9437255859375 -86.0833969116210938
7.25766372680664062 29.1088695526123047 -86.0835037231445312
6.74863481521606445 29.2310791015625 -86.0835037231445312
6.02934885025024414 28.3662986755371094 -86.0835037231445312
5.53346395492553711 28.4671878814697266 -86.0835037231445312
5.03589439392089844 28.5594081878662109 -86.0835037231445312
4.53650474548339844 28.6429767608642578 -86.0835037231445312
4.03601932525634766 28.7177734375 -86.0835037231445312
3.53430533409118652 28.7838268280029297 -86.0835037231445312
3.03122663497924805 28.8411445617675781 -86.0835037231445312
2.52751255035400391 28.8896465301513672 -86.0835037231445312
2.02302908897399902 28.929351806640625 -86.0835037231445312
1.09898066520690918 20.9712238311767578 -86.0835037231445312
0.697984755039215088 19.9878158569335938 -86.0835037231445312
-0.506130814552307129 -28.9955825805664062 -86.9104995727539062
-0.000113869355118367821 -31 -86.7880020141601562
0.558574080467224121 -31.9951248168945312 -86.7641983032226562
1.39596951007843018 -39.9756317138671875 -86.7641983032226562
1.6746370792388916 -31.9561519622802734 -86.7641983032226562
2.30206751823425293 -32.9196052551269531 -86.7641983032226562
3.0504462718963623 -34.8668136596679688 -86.7641983032226562
3.34480166435241699 -31.8247127532958984 -86.7641983032226562
3.89992308616638184 -31.7614631652832031 -86.7641983032226562
4.73188495635986328 -33.6691131591796875 -86.7641983032226562
5.16222953796386719 -32.5937309265136719 -86.7641983032226562
5.73050022125244141 -32.4986381530761719 -86.7641983032226562
6.67831850051879883 -34.3569488525390625 -86.7641983032226562
6.65307426452636719 -31.3007450103759766 -86.7641983032226562
7.42349815368652344 -32.1541862487792969 -86.7641983032226562
8.22535228729248047 -32.99005126953125 -86.7641983032226562
8.54093074798583984 -31.8755779266357422 -86.7641983032226562
9.37178897857666016 -32.6828651428222656 -86.7641983032226562
10.2330217361450195 -33.4706611633300781 -86.7641983032226562
10.1974687576293945 -31.3848953247070312 -86.7641983032226562
10.7438669204711914 -31.2020721435546875 -86.7641983032226562
10.9446592330932617 -30.0701580047607422 -86.7641983032226562
15.0513439178466797 -39.210418701171875 -86.7641983032226562
12.3621368408203125 -30.5970191955566406 -86.7641983032226562
16.4107303619384766 -38.66119384765625 -86.7641983032226562
17.0828361511230469 -38.3689537048339844 -86.7641983032226562
17.3274974822998047 -37.1585502624511719 -86.7641983032226562
18.4116153717041016 -37.7493362426757812 -86.7641983032226562
18.6135158538818359 -36.5313148498535156 -86.7641983032226562
19.7179584503173828 -37.0837173461914062 -86.7641983032226562
19.8772239685058594 -35.8593902587890625 -86.7641983032226562
20.9999103546142578 -36.3731193542480469 -86.76409912109375
21.1167106628417969 -35.143768310546875 -86.76409912109375
22.2566432952880859 -35.6180000305175781 -86.76409912109375
22.8748283386230469 -35.2241706848144531 -86.76409912109375
23.486114501953125 -34.8195686340332031 -86.76409912109375
23.5166378021240234 -33.5852317810058594 -86.76409912109375
24.0991878509521484 -33.1697006225585938 -86.76409912109375
24.0725841522216797 -31.9454326629638672 -86.76409912109375
25.24212646484375 -32.3084373474121094 -86.76409912109375
25.8021335601806641 -31.8629856109619141 -86.76409912109375
26.3542804718017578 -31.4078311920166016 -86.76409912109375
26.8984298706054688 -30.943084716796875 -86.76409912109375
27.434356689453125 -30.4689369201660156 -86.76409912109375
28.6439228057861328 -30.7168617248535156 -86.76409912109375
29.8703231811523438 -30.9315986633300781 -86.76409912109375
30.4055957794189453 -30.4055862426757812 -86.76409912109375
31.6509475708007812 -30.564971923828125 -86.7639999389648438
32.1795501708984375 -30.0079421997070312 -86.7639999389648438
31.9552364349365234 -28.7726078033447266 -86.7639999389648438
33.2072219848632812 -28.8665981292724609 -86.7639999389648438
33.7059478759765625 -28.2826652526855469 -86.7639999389648438
34.1944351196289062 -27.6900825500488281 -86.7639999389648438
34.6724777221679688 -27.0891017913818359 -86.7639999389648438
35.1399574279785156 -26.4798679351806641 -86.7639999389648438
35.5967369079589844 -25.8625679016113281 -86.7639007568359375
36.042694091796875 -25.2373542785644531 -86.7639007568359375
35.6486129760742188 -24.0452976226806641 -86.7639007568359375
36.9014968872070312 -23.9641304016113281 -86.7639007568359375
34.7699813842773438 -21.7266769409179688 -86.7639007568359375
34.2866935729980469 -20.6015205383300781 -86.7638015747070312
35.5070381164550781 -20.5000076293945312 -86.7638015747070312
36.734039306640625 -20.3619861602783203 -86.7638015747070312
35.3179054260253906 -18.7788562774658203 -86.7638015747070312
35.6402587890625 -18.1596240997314453 -86.763702392578125
34.1541671752929688 -16.6581172943115234 -86.763702392578125
36.2523155212402344 -16.9047183990478516 -86.763702392578125
35.6282730102539062 -15.8627281188964844 -86.7636032104492188
36.8201904296875 -15.6292552947998047 -86.7636032104492188
36.1601753234863281 -14.6096410751342773 -86.7636032104492188
38.2767982482910156 -14.6930809020996094 -86.7634963989257812
35.7083168029785156 -12.9967708587646484 -86.7634963989257812
37.8207359313964844 -13.0227432250976562 -86.763397216796875
35.1890945434570312 -11.433619499206543 -86.763397216796875
35.3832740783691406 -10.817753791809082 -86.763397216796875
34.6054191589355469 -9.92295551300048828 -86.7632980346679688
36.7051849365234375 -9.83510971069335938 -86.7631988525390625
34.9306488037109375 -8.70918464660644531 -86.7631988525390625
37.02606201171875 -8.54814720153808594 -86.7630996704101562
35.2133102416992188 -7.48483800888061523 -86.7630996704101562
37.3018341064453125 -7.25073385238647461 -86.76300048828125
35.4530792236328125 -6.25133705139160156 -86.7629013061523438
35.5567779541015625 -5.63165378570556641 -86.7628021240234375
35.6496505737304688 -5.01021957397460938 -86.7628021240234375
34.7391166687011719 -4.26542520523071289 -86.7627029418945312
35.8027877807617188 -3.76303339004516602 -86.762603759765625
34.8668136596679688 -3.05045223236083984 -86.7624969482421875
35.9123039245605469 -2.51123404502868652 -86.7623977661132812
34.9520339965820312 -1.83175921440124512 -86.762298583984375
37.9768524169921875 -1.32618141174316406 -86.7621994018554688
35.9945182800292969 -0.628286898136138916 -86.7621002197265625
36 6.26997572242792012e-14 -86.7620010375976562
35.9945182800292969 0.628286898136138916 -86.7618026733398438
36.9774589538574219 1.29128193855285645 -86.7615966796875
35.9506645202636719 1.88409519195556641 -86.7614974975585938
36.9098701477050781 2.58099055290222168 -86.7612991333007812
35.8630104064941406 3.13760805130004883 -86.7611007690429688
35.8027877807617188 3.76303339004516602 -86.7610015869140625
35.7316627502441406 4.38729476928710938 -86.76080322265625
35.6496505737304688 5.01021957397460938 -86.7605972290039062
35.5567779541015625 5.63165378570556641 -86.7602996826171875
35.4530792236328125 6.25133705139160156 -86.760101318359375
35.3385810852050781 6.86911630630493164 -86.7599029541015625
36.1914558410644531 7.69275045394897461 -86.7596969604492188
35.0773200988769531 8.09824466705322266 -86.7593994140625
37.8415336608886719 9.43494987487792969 -86.7591018676757812
35.7392578125 9.57629108428955078 -86.7587966918945312
36.5279426574707031 10.4742307662963867 -86.7584991455078125
35.3832740783691406 10.817753791809082 -86.7581024169921875
34.238037109375 11.1246023178100586 -86.7577972412109375
36.8752174377441406 12.697174072265625 -86.7574005126953125
34.7686233520507812 12.6547508239746094 -86.75689697265625
35.4760589599609375 13.6179771423339844 -86.756500244140625
36.1601753234863281 14.6096410751342773 -86.7559967041015625
36.8201904296875 15.6292552947998047 -86.7555007934570312
35.6282730102539062 15.8627281188964844 -86.7547988891601562
34.4397010803222656 16.0594825744628906 -86.7542037963867188
35.0529594421386719 17.0964889526367188 -86.75360107421875
36.5312652587890625 18.6136150360107422 -86.752899169921875
36.2008552551269531 19.2483272552490234 -86.752197265625
34.9847984313964844 19.3923683166503906 -86.75140380859375
42.4352378845214844 24.5000095367431641 -86.7506027221679688
40.286865234375 24.206787109375 -86.7498016357421875
39.0102195739746094 24.3762722015380859 -86.7489013671875
38.5788383483886719 25.0534095764160156 -86.7481002807617188
37.3066902160644531 25.1636829376220703 -86.7470016479492188
36.861846923828125 25.8109302520751953 -86.7459030151367188
33.9787025451660156 24.6869964599609375 -86.7450027465820312
33.5426864624023438 25.2762374877929688 -86.7435989379882812
33.0964546203613281 25.8577785491943359 -86.7423019409179688
32.6401405334472656 26.4314422607421875 -86.7408981323242188
32.173858642578125 26.9970893859863281 -86.7394027709960938
30.1883831024169922 26.2423610687255859 -86.7378005981445312
29.7258014678955078 26.7652149200439453 -86.73590087890625
29.2541370391845703 27.2799472808837891 -86.734100341796875
28.7735881805419922 27.7863388061523438 -86.7322006225585938
28.2842750549316406 28.2842674255371094 -86.7302017211914062
27.7863483428955078 28.7735786437988281 -86.72760009765625
27.9619255065917969 29.9855079650878906 -86.7253036499023438
26.7652263641357422 29.7257919311523438 -86.722900390625
26.8984298706054688 30.943084716796875 -86.7202987670898438
25.0687065124511719 29.8757419586181641 -86.717498779296875
25.8021335601806641 31.8629856109619141 -86.7145004272460938
22.77947998046875 29.1563930511474609 -86.7114028930664062
21.6653270721435547 28.7508888244628906 -86.708099365234375
21.1602630615234375 29.1246166229248047 -86.704498291015625
20.6487541198730469 29.489471435546875 -86.700103759765625
19.5717620849609375 29.0163078308105469 -86.6960983276367188
19.60699462890625 30.1921463012695312 -86.6917037963867188
18.5472030639648438 29.6816654205322266 -86.6872024536132812
16.9963760375976562 28.2864494323730469 -86.6822967529296875
22.9999027252197266 39.8372230529785156 -86.676300048828125
22.3012771606445312 40.2324867248535156 -86.6716995239257812
21.5958595275878906 40.6155014038085938 -86.665802001953125
20.4294700622558594 40.0953445434570312 -86.6595993041992188
19.7267303466796875 40.4457168579101562 -86.6529998779296875
19.0179862976074219 40.7837753295898438 -86.6460037231445312
14.642430305480957 32.8876762390136719 -86.639801025390625
14.066340446472168 33.1381645202636719 -86.6320037841796875
13.8605775833129883 34.3057479858398438 -86.6237030029296875
12.5427865982055664 32.6753501892089844 -86.616302490234375
12.3127412796020508 33.8289299011230469 -86.6070022583007812
12.3717250823974609 35.9296607971191406 -86.5970993041992188
10.1974687576293945 31.3848953247070312 -86.5866012573242188
9.35590553283691406 30.6017494201660156 -86.5754013061523438
8.54486656188964844 29.7990818023681641 -86.5634994506835938
7.76448249816894531 28.9777984619140625 -86.5530014038085938
7.01574134826660156 28.1385746002197266 -86.539703369140625
6.52368021011352539 28.2567081451416016 -86.5255966186523438
5.82144021987915039 27.3881511688232422 -86.5105972290039062
5.53346395492553711 28.4671878814697266 -86.4973983764648438
5.03589439392089844 28.5594081878662109 -86.4805984497070312
4.53650474548339844 28.6429767608642578 -86.4626998901367188
4.03601932525634766 28.7177734375 -86.4468994140625
3.53430533409118652 28.7838268280029297 -86.4268035888671875
3.03122663497924805 28.8411445617675781 -86.404998779296875
2.44035696983337402 27.8934516906738281 -86.3799972534179688
2.02302908897399902 28.929351806640625 -86.345703125
1.04664826393127441 19.97259521484375 -86.2761001586914062
-0.000110196153400465846 -30 -87.00360107421875
0.4887523353099823 -27.9957332611083984 -87.0447006225585938
1.0120779275894165 -28.9823341369628906 -87.0718994140625
1.6746370792388916 -31.9561519622802734 -87.0948028564453125
2.30206751823425293 -32.9196052551269531 -87.1191024780273438
2.70182394981384277 -30.8820362091064453 -87.138397216796875
3.13575172424316406 -29.8356685638427734 -87.1595001220703125
4.02179574966430664 -32.7540092468261719 -87.1763992309570312
4.17519283294677734 -29.7080421447753906 -87.1922988891601562
4.84936714172363281 -30.6183547973632812 -87.2071990966796875
5.20954561233520508 -29.5442142486572266 -87.2212982177734375
5.7242732048034668 -29.4488143920898438 -87.2344970703125
6.65307426452636719 -31.3007450103759766 -87.2470016479492188
6.74863481521606445 -29.2310791015625 -87.2567977905273438
7.49958562850952148 -30.0791664123535156 -87.2678985595703125
8.54093074798583984 -31.8755779266357422 -87.2783966064453125
8.54486656188964844 -29.7990818023681641 -87.2866973876953125
9.35590553283691406 -30.6017494201660156 -87.2959976196289062
11.1245107650756836 -34.238067626953125 -87.3048019409179688
10.7438669204711914 -31.2020721435546875 -87.311798095703125
10.2606172561645508 -28.1907730102539062 -87.3197021484375
11.4676904678344727 -29.8746051788330078 -87.325897216796875
11.9875268936157227 -29.6698360443115234 -87.3340988159179688
11.7219505310058594 -27.6151390075683594 -87.3416976928710938
16.6761016845703125 -37.4554100036621094 -87.3478012084960938
17.3274974822998047 -37.1585502624511719 -87.3535995483398438
17.9732437133789062 -36.8505439758300781 -87.3590011596679688
18.1595287322998047 -35.6403083801269531 -87.3632965087890625
19.2484836578369141 -36.2007713317871094 -87.36810302734375
19.3924140930175781 -34.984771728515625 -87.3727035522460938
19.9999160766601562 -34.6410636901855469 -87.3768997192382812
21.6317520141601562 -36.0009346008300781 -87.3809967041015625
21.7267227172851562 -34.7699508666992188 -87.3853988647460938
22.3301887512207031 -34.3855018615722656 -87.3889007568359375
22.9269218444824219 -33.9905319213867188 -87.3921966552734375
24.0902137756347656 -34.4043846130371094 -87.3947982788085938
24.6869735717773438 -33.9787178039550781 -87.3983001708984375
24.6744003295898438 -32.7440681457519531 -87.4010009765625
25.24212646484375 -32.3084373474121094 -87.4036026000976562
25.8021335601806641 -31.8629856109619141 -87.40570068359375
26.3542804718017578 -31.4078311920166016 -87.4079971313476562
26.8984298706054688 -30.943084716796875 -87.4102020263671875
28.1034870147705078 -31.2120819091796875 -87.4123001098632812
29.3259220123291016 -31.4482173919677734 -87.4141998291015625
29.1756649017333984 -30.2122573852539062 -87.4160003662109375
30.4055957794189453 -30.4055862426757812 -87.4177017211914062
31.6509475708007812 -30.564971923828125 -87.4192962646484375
32.1795501708984375 -30.0079421997070312 -87.4207992553710938
32.6983795166015625 -29.4417381286621094 -87.4219970703125
32.4525108337402344 -28.2105388641357422 -87.42340087890625
33.7059478759765625 -28.2826652526855469 -87.424896240234375
34.1944351196289062 -27.6900825500488281 -87.4261016845703125
34.6724777221679688 -27.0891017913818359 -87.4272003173828125
35.1399574279785156 -26.4798679351806641 -87.4281997680664062
35.5967369079589844 -25.8625679016113281 -87.42919921875
36.042694091796875 -25.2373542785644531 -87.4300994873046875
34.8195762634277344 -23.4861030578613281 -87.430999755859375
34.3854866027832031 -22.3302116394042969 -87.4318008422851562
34.7699813842773438 -21.7266769409179688 -87.4326019287109375
35.14385986328125 -21.1165580749511719 -87.4332962036132812
35.5070381164550781 -20.5000076293945312 -87.4339981079101562
34.9847984313964844 -19.3923683166503906 -87.4347000122070312
35.3179054260253906 -18.7788562774658203 -87.435302734375
35.6402587890625 -18.1596240997314453 -87.4357986450195312
35.0529594421386719 -17.0964889526367188 -87.4364013671875
34.4397010803222656 -16.0594825744628906 -87.436798095703125
34.7147293090820312 -15.4559917449951172 -87.4373016357421875
34.0586738586425781 -14.4570608139038086 -87.4376983642578125
34.3058090209960938 -13.8604288101196289 -87.4381027221679688
36.409637451171875 -13.9763450622558594 -87.4384994506835938
34.7686233520507812 -12.6547508239746094 -87.4387969970703125
34.9841804504394531 -12.0460367202758789 -87.4392013549804688
35.1890945434570312 -11.433619499206543 -87.4394989013671875
35.3832740783691406 -10.817753791809082 -87.4397964477539062
34.6054191589355469 -9.92295551300048828 -87.4401016235351562
37.671112060546875 -10.093928337097168 -87.440399169921875
38.81182861328125 -9.67687225341796875 -87.4405975341796875
35.0773200988769531 -8.09824466705322266 -87.4409027099609375
36.1914558410644531 -7.69275045394897461 -87.44110107421875
35.3385810852050781 -6.86911630630493164 -87.4412994384765625
34.4682693481445312 -6.07768869400024414 -87.441497802734375
35.5567779541015625 -5.63165378570556641 -87.4417037963867188
35.6496505737304688 -5.01021957397460938 -87.4419021606445312
37.7167549133300781 -4.63103342056274414 -87.4421005249023438
34.8082656860351562 -3.65850472450256348 -87.44219970703125
35.8630104064941406 -3.13760805130004883 -87.4423980712890625
35.9123039245605469 -2.51123404502868652 -87.4424972534179688
34.9520339965820312 -1.83175921440124512 -87.4427032470703125
35.9780693054199219 -1.25638246536254883 -87.4428024291992188
37.9942131042480469 -0.663191735744476318 -87.442901611328125
37 6.70088509961870582e-14 -87.4430007934570312
36.9943656921386719 0.645739316940307617 -87.4430999755859375
36.9774589538574219 1.29128193855285645 -87.4431991577148438
35.9506645202636719 1.88409519195556641 -87.44329833984375
33.9171791076660156 2.37172102928161621 -87.4433975219726562
36.8592033386230469 3.22476387023925781 -87.4434967041015625
35.8027877807617188 3.76303339004516602 -87.4434967041015625
34.7391166687011719 4.26542520523071289 -87.443603515625
35.6496505737304688 5.01021957397460938 -87.4437026977539062
38.5198440551757812 6.10095834732055664 -87.4437026977539062
34.4682693481445312 6.07768869400024414 -87.4438018798828125
35.3385810852050781 6.86911630630493164 -87.4439010620117188
36.1914558410644531 7.69275045394897461 -87.4439010620117188
34.1029510498046875 7.87329339981079102 -87.444000244140625
36.8712387084960938 9.19302845001220703 -87.444000244140625
37.671112060546875 10.093928337097168 -87.4440994262695312
35.566680908203125 10.1985931396484375 -87.4440994262695312
35.3832740783691406 10.817753791809082 -87.4441986083984375
35.1890945434570312 11.433619499206543 -87.4441986083984375
34.0386619567871094 11.7204685211181641 -87.4441986083984375
36.64801025390625 13.3387908935546875 -87.4442977905273438
35.4760589599609375 13.6179771423339844 -87.4442977905273438
35.2329940795898438 14.2350349426269531 -87.4442977905273438
35.8996849060058594 15.2385234832763672 -87.44439697265625
34.7147293090820312 15.4559917449951172 -87.44439697265625
35.34600830078125 16.4821014404296875 -87.44439697265625
35.9517555236816406 17.5348606109619141 -87.44439697265625
34.7492523193359375 17.7056331634521484 -87.4445037841796875
35.3179054260253906 18.7788562774658203 -87.4445037841796875
34.9847984313964844 19.3923683166503906 -87.4445037841796875
42.4352378845214844 24.5000095367431641 -87.4445037841796875
42.0011978149414062 25.2368621826171875 -87.4445037841796875
40.7063179016113281 25.4361095428466797 -87.4445037841796875
38.5788383483886719 25.0534095764160156 -87.4446029663085938
36.4776535034179688 24.6044902801513672 -87.4446029663085938
34.4043922424316406 24.0902023315429688 -87.4446029663085938
33.1696853637695312 24.0992107391357422 -87.4446029663085938
34.3413238525390625 25.8780517578125 -87.4446029663085938
32.3084449768066406 25.2421169281005859 -87.4446029663085938
32.6401405334472656 26.4314422607421875 -87.4446029663085938
32.173858642578125 26.9970893859863281 -87.4446029663085938
30.9430923461914062 26.8984203338623047 -87.4447021484375
30.4689464569091797 27.4343452453613281 -87.4447021484375
29.9854907989501953 27.961944580078125 -87.4447021484375
28.7735881805419922 27.7863388061523438 -87.4447021484375
27.5771694183349609 27.5771598815917969 -87.4447021484375
27.0916900634765625 28.0542392730712891 -87.4447021484375
27.2799263000488281 29.2541542053222656 -87.4447021484375
27.434356689453125 30.4689369201660156 -87.4447021484375
25.5863113403320312 29.4336643218994141 -87.4447021484375
26.3542804718017578 31.4078311920166016 -87.4447021484375
25.8021335601806641 31.8629856109619141 -87.4447021484375
24.62646484375 31.5204257965087891 -87.4447021484375
21.6653270721435547 28.7508888244628906 -87.4447021484375
20.5724773406982422 28.3155994415283203 -87.4447021484375
20.0751781463623047 28.6703205108642578 -87.4447021484375
19.5717620849609375 29.0163078308105469 -87.4447021484375
19.0623569488525391 29.3534755706787109 -87.4448013305664062
18.0172824859619141 28.8336181640625 -87.4448013305664062
22.6618366241455078 37.7152633666992188 -87.4448013305664062
22.9999027252197266 39.8372230529785156 -87.4448013305664062
22.3012771606445312 40.2324867248535156 -87.4448013305664062
21.1263847351074219 39.7325553894042969 -87.4448013305664062
20.4294700622558594 40.0953445434570312 -87.4448013305664062
19.7267303466796875 40.4457168579101562 -87.4448013305664062
19.0179862976074219 40.7837753295898438 -87.4448013305664062
14.642430305480957 32.8876762390136719 -87.4448013305664062
13.6756086349487305 32.2176628112792969 -87.4448013305664062
13.1113567352294922 32.451385498046875 -87.4448013305664062
13.259516716003418 34.5425148010253906 -87.4448013305664062
12.6547622680664062 34.7686195373535156 -87.4448013305664062
12.0461540222167969 34.9841423034667969 -87.4448013305664062
11.4335250854492188 35.1891250610351562 -87.4448013305664062
9.35590553283691406 30.6017494201660156 -87.4448013305664062
8.26922607421875 28.8378200531005859 -87.4448013305664062
7.76448249816894531 28.9777984619140625 -87.4448013305664062
7.01574134826660156 28.1385746002197266 -87.4448013305664062
6.74863481521606445 29.2310791015625 -87.4448013305664062
6.23725748062133789 29.3444480895996094 -87.4448013305664062
5.53346395492553711 28.4671878814697266 -87.4448013305664062
5.03589439392089844 28.5594081878662109 -87.4448013305664062
4.53650474548339844 28.6429767608642578 -87.4448013305664062
4.03601932525634766 28.7177734375 -87.4448013305664062
3.53430533409118652 28.7838268280029297 -87.4448013305664062
3.03122663497924805 28.8411445617675781 -87.4448013305664062
2.52751255035400391 28.8896465301513672 -87.4448013305664062
1.39519250392913818 19.9512767791748047 -87.4448013305664062
1.04664826393127441 19.97259521484375 -87.4448013305664062
0.663085520267486572 18.9884262084960938 -87.4448013305664062
-0.436319679021835327 -24.9961929321289062 -88.2517013549804688
-9.91765409708023071e-05 -27 -88.1400985717773438
0.471296876668930054 -26.9958858489990234 -88.1255035400390625
0.977178692817687988 -27.9829425811767578 -88.1255035400390625
1.41297507286071777 -26.9630031585693359 -88.1255035400390625
1.88350987434387207 -26.9342231750488281 -88.1255035400390625
2.44035696983337402 -27.8934516906738281 -88.1255035400390625
2.82217645645141602 -26.8521003723144531 -88.1255035400390625
3.65617799758911133 -29.7763729095458984 -88.1255035400390625
3.75767326354980469 -26.7372379302978516 -88.1255035400390625
4.38007354736328125 -27.6552886962890625 -88.1255035400390625
4.86224269866943359 -27.5746002197265625 -88.1255035400390625
5.15184593200683594 -26.5039329528808594 -88.1255035400390625
5.82144021987915039 -27.3881511688232422 -88.1255035400390625
6.07377099990844727 -26.3079700469970703 -88.1255035400390625
7.01574134826660156 -28.1385746002197266 -88.1255035400390625
6.98803424835205078 -26.0800189971923828 -88.1255035400390625
8.26922607421875 -28.8378200531005859 -88.1255035400390625
9.64827728271484375 -31.5580539703369141 -88.1255035400390625
8.96141147613525391 -27.5806655883789062 -88.1255035400390625
9.11600780487060547 -26.4744853973388672 -88.1255035400390625
9.23455619812011719 -25.3716964721679688 -88.1255035400390625
10.0342292785644531 -26.1402797698974609 -88.1255035400390625
10.1144752502441406 -25.0339241027832031 -88.1255035400390625
10.5497550964355469 -24.8536243438720703 -88.1255035400390625
16.6761016845703125 -37.4554100036621094 -88.1255035400390625
16.904876708984375 -36.2522430419921875 -88.1255035400390625
17.9732437133789062 -36.8505439758300781 -88.1255035400390625
18.1595287322998047 -35.6403083801269531 -88.1255035400390625
19.2484836578369141 -36.2007713317871094 -88.1255035400390625
19.8772239685058594 -35.8593902587890625 -88.1255035400390625
20.4999122619628906 -35.5070915222167969 -88.1255035400390625
21.1167106628417969 -35.143768310546875 -88.1255035400390625
22.2566432952880859 -35.6180000305175781 -88.1255035400390625
22.8748283386230469 -35.2241706848144531 -88.1255035400390625
23.486114501953125 -34.8195686340332031 -88.1255035400390625
24.0902137756347656 -34.4043846130371094 -88.1255035400390625
24.0991878509521484 -33.1697006225585938 -88.1255035400390625
24.6744003295898438 -32.7440681457519531 -88.1255035400390625
25.8577880859375 -33.0964469909667969 -88.1255035400390625
25.8021335601806641 -31.8629856109619141 -88.125396728515625
26.3542804718017578 -31.4078311920166016 -88.125396728515625
26.8984298706054688 -30.943084716796875 -88.125396728515625
27.434356689453125 -30.4689369201660156 -88.125396728515625
28.6439228057861328 -30.7168617248535156 -88.125396728515625
29.1756649017333984 -30.2122573852539062 -88.125396728515625
31.1127033233642578 -31.1126937866210938 -88.125396728515625
31.6509475708007812 -30.564971923828125 -88.125396728515625
32.1795501708984375 -30.0079421997070312 -88.125396728515625
32.6983795166015625 -29.4417381286621094 -88.125396728515625
33.2072219848632812 -28.8665981292724609 -88.125396728515625
33.7059478759765625 -28.2826652526855469 -88.1252975463867188
34.1944351196289062 -27.6900825500488281 -88.1252975463867188
34.6724777221679688 -27.0891017913818359 -88.1252975463867188
35.1399574279785156 -26.4798679351806641 -88.1252975463867188
35.5967369079589844 -25.8625679016113281 -88.1252975463867188
35.2235450744628906 -24.6637783050537109 -88.1252975463867188
35.6486129760742188 -24.0452976226806641 -88.1252975463867188
34.3854866027832031 -22.3302116394042969 -88.1251983642578125
35.6180267333984375 -22.2565956115722656 -88.1251983642578125
35.14385986328125 -21.1165580749511719 -88.1251983642578125
34.6410102844238281 -20.0000076293945312 -88.1251983642578125
37.6086578369140625 -20.8467960357666016 -88.1251983642578125
37.08380126953125 -19.7177982330322266 -88.1250991821289062
35.6402587890625 -18.1596240997314453 -88.1250991821289062
35.0529594421386719 -17.0964889526367188 -88.1250991821289062
35.34600830078125 -16.4821014404296875 -88.125
35.6282730102539062 -15.8627281188964844 -88.125
34.9791793823242188 -14.8477926254272461 -88.125
35.2329940795898438 -14.2350349426269531 -88.1249008178710938
35.4760589599609375 -13.6179771423339844 -88.1249008178710938
37.5877037048339844 -13.6808109283447266 -88.1249008178710938
34.9841804504394531 -12.0460367202758789 -88.1248016357421875
35.1890945434570312 -11.433619499206543 -88.1248016357421875
36.3395805358886719 -11.1101255416870117 -88.1247024536132812
35.566680908203125 -10.1985931396484375 -88.1247024536132812
34.7733345031738281 -9.31747245788574219 -88.124603271484375
34.9306488037109375 -8.70918464660644531 -88.124603271484375
36.0516891479492188 -8.3231964111328125 -88.1244964599609375
35.2133102416992188 -7.48483800888061523 -88.1244964599609375
35.3385810852050781 -6.86911630630493164 -88.1243972778320312
36.4378852844238281 -6.42498540878295898 -88.124298095703125
36.5444679260253906 -5.78808879852294922 -88.1241989135742188
35.6496505737304688 -5.01021957397460938 -88.1241989135742188
35.7316627502441406 -4.38729476928710938 -88.1240997314453125
36.7973098754882812 -3.86756205558776855 -88.1240005493164062
35.8630104064941406 -3.13760805130004883 -88.1239013671875
34.9147415161132812 -2.44147753715515137 -88.1238021850585938
34.9520339965820312 -1.83175921440124512 -88.1237030029296875
33.9792861938476562 -1.18658339977264404 -88.12359619140625
35.9945182800292969 -0.628286898136138916 -88.1233978271484375
35 6.09581016306620649e-14 -88.1232986450195312
34.9946708679199219 0.610834479331970215 -88.123199462890625
35.9780693054199219 1.25638246536254883 -88.1230010986328125
34.9520339965820312 1.83175921440124512 -88.1229019165039062
35.9123039245605469 2.51123404502868652 -88.1227035522460938
35.8630104064941406 3.13760805130004883 -88.12249755859375
36.7973098754882812 3.86756205558776855 -88.1222991943359375
36.7242088317871094 4.50916385650634766 -88.1222000122070312
35.6496505737304688 5.01021957397460938 -88.1220016479492188
35.5567779541015625 5.63165378570556641 -88.1216964721679688
34.4682693481445312 6.07768869400024414 -88.1214981079101562
35.3385810852050781 6.86911630630493164 -88.1212005615234375
36.1914558410644531 7.69275045394897461 -88.121002197265625
36.0516891479492188 8.3231964111328125 -88.120697021484375
35.9009437561035156 8.95110702514648438 -88.1203994750976562
36.7051849365234375 9.83510971069335938 -88.1201019287109375
36.5279426574707031 10.4742307662963867 -88.1196975708007812
35.3832740783691406 10.817753791809082 -88.11920166015625
35.1890945434570312 11.433619499206543 -88.1187973022460938
34.9841804504394531 12.0460367202758789 -88.1184005737304688
35.7083168029785156 12.9967708587646484 -88.1179962158203125
35.4760589599609375 13.6179771423339844 -88.1175994873046875
35.2329940795898438 14.2350349426269531 -88.1171035766601562
34.9791793823242188 14.8477926254272461 -88.1165008544921875
35.6282730102539062 15.8627281188964844 -88.115997314453125
34.4397010803222656 16.0594825744628906 -88.1153030395507812
35.0529594421386719 17.0964889526367188 -88.1147003173828125
34.7492523193359375 17.7056331634521484 -88.1140975952148438
34.4349594116210938 18.3093852996826172 -88.1134033203125
34.9847984313964844 19.3923683166503906 -88.1126022338867188
42.4352378845214844 24.5000095367431641 -88.11199951171875
40.286865234375 24.206787109375 -88.1110992431640625
38.1621742248535156 23.8463535308837891 -88.110198974609375
38.5788383483886719 25.0534095764160156 -88.1091995239257812
38.1357269287109375 25.7228755950927734 -88.1082000732421875
36.861846923828125 25.8109302520751953 -88.1072998046875
34.7877197265625 25.2747821807861328 -88.1061019897460938
33.5426864624023438 25.2762374877929688 -88.1048965454101562
31.5204334259033203 24.6264553070068359 -88.1037979125976562
32.6401405334472656 26.4314422607421875 -88.102203369140625
30.6417694091796875 25.7115135192871094 -88.1007003784179688
30.1883831024169922 26.2423610687255859 -88.0991973876953125
29.7258014678955078 26.7652149200439453 -88.097503662109375
29.9854907989501953 27.961944580078125 -88.095703125
29.4929275512695312 28.4809970855712891 -88.093902587890625
28.9913825988769531 28.9913730621337891 -88.091796875
27.0916900634765625 28.0542392730712891 -88.0894012451171875
26.5979290008544922 28.5228004455566406 -88.0875015258789062
26.0960941314697266 28.9826469421386719 -88.0850982666015625
26.24237060546875 30.1883735656738281 -88.0824966430664062
25.7114925384521484 30.6417865753173828 -88.079803466796875
25.1728134155273438 31.0858402252197266 -88.0768966674804688
24.01080322265625 30.7324142456054688 -88.0743026733398438
21.6653270721435547 28.7508888244628906 -88.0710983276367188
21.1602630615234375 29.1246166229248047 -88.0671005249023438
20.0751781463623047 28.6703205108642578 -88.0634002685546875
19.5717620849609375 29.0163078308105469 -88.0587997436523438
19.0623569488525391 29.3534755706787109 -88.0546035766601562
18.5472030639648438 29.6816654205322266 -88.0501022338867188
17.5114192962646484 29.1436138153076172 -88.0460968017578125
22.9999027252197266 39.8372230529785156 -88.0402984619140625
22.3012771606445312 40.2324867248535156 -88.0338973999023438
21.1263847351074219 39.7325553894042969 -88.0291976928710938
20.4294700622558594 40.0953445434570312 -88.023101806640625
19.7267303466796875 40.4457168579101562 -88.0166015625
19.0179862976074219 40.7837753295898438 -88.0096969604492188
18.3030376434326172 41.1095962524414062 -88.0024032592773438
13.284876823425293 31.2971572875976562 -87.9946975708007812
13.8605775833129883 34.3057479858398438 -87.9863967895507812
12.9011516571044922 33.6089324951171875 -87.9792022705078125
11.9707202911376953 32.8892364501953125 -87.9699020385742188
11.0694379806518555 32.1475906372070312 -87.9600982666015625
10.1974687576293945 31.3848953247070312 -87.9496994018554688
9.35590553283691406 30.6017494201660156 -87.9385986328125
8.54486656188964844 29.7990818023681641 -87.9269027709960938
7.50566673278808594 28.011871337890625 -87.9164962768554688
7.01574134826660156 28.1385746002197266 -87.9033966064453125
6.52368021011352539 28.2567081451416016 -87.8893966674804688
5.61353158950805664 26.410003662109375 -87.8744964599609375
5.53346395492553711 28.4671878814697266 -87.85870361328125
4.86224269866943359 27.5746002197265625 -87.8448028564453125
4.38007354736328125 27.6552886962890625 -87.8302001953125
4.03601932525634766 28.7177734375 -87.8115005493164062
3.53430533409118652 28.7838268280029297 -87.7916030883789062
3.03122663497924805 28.8411445617675781 -87.7701034545898438
2.52751255035400391 28.8896465301513672 -87.7501983642578125
1.39519250392913818 19.9512767791748047 -87.72039794921875
1.04664826393127441 19.97259521484375 -87.6539993286132812
-8.8156921265181154e-05 -24 -88.3600006103515625
0.436386018991470337 -24.9961910247802734 -88.406097412109375
0.837581753730773926 -23.9853801727294922 -88.4343032836914062
1.25597786903381348 -23.9671134948730469 -88.4574966430664062
1.81375014781951904 -25.9366588592529297 -88.4784011840820312
2.35320138931274414 -26.8972568511962891 -88.4979019165039062
2.92670154571533203 -27.8466224670410156 -88.5190963745117188
3.16868758201599121 -25.8061904907226562 -88.536102294921875
3.47932720184326172 -24.7567024230957031 -88.5521011352539062
3.91077995300292969 -24.6922206878662109 -88.5671005249023438
4.68859148025512695 -26.5897941589355469 -88.581298828125
4.77022743225097656 -24.540679931640625 -88.5945968627929688
5.19771432876586914 -24.4537067413330078 -88.6051025390625
5.84881687164306641 -25.3336009979248047 -88.6169967651367188
6.28997516632080078 -25.2276878356933594 -88.6281967163085938
6.47040224075317383 -24.1481647491455078 -88.6388015747070312
6.891021728515625 -24.0315170288085938 -88.6486968994140625
7.30930089950561523 -23.9076156616210938 -88.6580963134765625
8.03436946868896484 -24.7274932861328125 -88.6653976440429688
7.8137211799621582 -22.6924171447753906 -88.673797607421875
9.91859722137451172 -27.2510814666748047 -88.6802978515625
8.60076808929443359 -22.4059543609619141 -88.6877975463867188
9.36525535583496094 -23.1795597076416016 -88.6948013305664062
9.37756061553955078 -22.0921115875244141 -88.7014007568359375
9.76162052154541016 -21.9251174926757812 -88.7087020874023438
17.3274974822998047 -37.1585502624511719 -88.7145004272460938
17.9732437133789062 -36.8505439758300781 -88.7199020385742188
18.6135158538818359 -36.5313148498535156 -88.7249984741210938
18.7790088653564453 -35.3178253173828125 -88.7291030883789062
19.3924140930175781 -34.984771728515625 -88.7329025268554688
20.4999122619628906 -35.5070915222167969 -88.7379989624023438
21.1167106628417969 -35.143768310546875 -88.7419967651367188
21.7267227172851562 -34.7699508666992188 -88.7457962036132812
21.7855510711669922 -33.5468292236328125 -88.7493972778320312
22.9269218444824219 -33.9905319213867188 -88.7522964477539062
24.0902137756347656 -34.4043846130371094 -88.7548980712890625
24.0991878509521484 -33.1697006225585938 -88.7584991455078125
24.6744003295898438 -32.7440681457519531 -88.7612991333007812
25.24212646484375 -32.3084373474121094 -88.7636032104492188
25.8021335601806641 -31.8629856109619141 -88.7660980224609375
26.3542804718017578 -31.4078311920166016 -88.768096923828125
26.8984298706054688 -30.943084716796875 -88.7704010009765625
27.434356689453125 -30.4689369201660156 -88.7724990844726562
27.9619255065917969 -29.9855079650878906 -88.774200439453125
29.8703231811523438 -30.9315986633300781 -88.7761001586914062
30.4055957794189453 -30.4055862426757812 -88.7779006958007812
31.6509475708007812 -30.564971923828125 -88.77960205078125
32.1795501708984375 -30.0079421997070312 -88.781097412109375
32.6983795166015625 -29.4417381286621094 -88.7826004028320312
32.4525108337402344 -28.2105388641357422 -88.78399658203125
33.7059478759765625 -28.2826652526855469 -88.7855987548828125
34.1944351196289062 -27.6900825500488281 -88.7865982055664062
34.6724777221679688 -27.0891017913818359 -88.7878036499023438
35.1399574279785156 -26.4798679351806641 -88.7889022827148438
35.5967369079589844 -25.8625679016113281 -88.79010009765625
35.2235450744628906 -24.6637783050537109 -88.7910003662109375
36.4776535034179688 -24.6044902801513672 -88.791900634765625
34.3854866027832031 -22.3302116394042969 -88.7927017211914062
34.7699813842773438 -21.7266769409179688 -88.7935028076171875
36.8581962585449219 -22.1466350555419922 -88.7941970825195312
34.6410102844238281 -20.0000076293945312 -88.7948989868164062
34.1101760864257812 -18.9075584411621094 -88.795501708984375
34.4349594116210938 -18.3093852996826172 -88.7960968017578125
35.6402587890625 -18.1596240997314453 -88.7966995239257812
35.0529594421386719 -17.0964889526367188 -88.79730224609375
35.34600830078125 -16.4821014404296875 -88.7977981567382812
36.5418205261230469 -16.2694644927978516 -88.7983016967773438
34.9791793823242188 -14.8477926254272461 -88.7986984252929688
34.3058090209960938 -13.8604288101196289 -88.799102783203125
36.409637451171875 -13.9763450622558594 -88.7995986938476562
36.64801025390625 -13.3387908935546875 -88.799896240234375
36.8752174377441406 -12.697174072265625 -88.8003997802734375
35.1890945434570312 -11.433619499206543 -88.8006973266601562
34.426971435546875 -10.5253820419311523 -88.8010025024414062
36.5279426574707031 -10.4742307662963867 -88.801300048828125
34.7733345031738281 -9.31747245788574219 -88.8015975952148438
34.9306488037109375 -8.70918464660644531 -88.8018035888671875
35.0773200988769531 -8.09824466705322266 -88.8021011352539062
35.2133102416992188 -7.48483800888061523 -88.8022994995117188
36.3202056884765625 -7.05992507934570312 -88.8024978637695312
34.4682693481445312 -6.07768869400024414 -88.8026962280273438
34.569091796875 -5.47521877288818359 -88.8029022216796875
36.6399192810058594 -5.14939212799072266 -88.8031005859375
35.7316627502441406 -4.38729476928710938 -88.8032989501953125
34.8082656860351562 -3.65850472450256348 -88.803497314453125
35.8630104064941406 -3.13760805130004883 -88.8035964965820312
35.9123039245605469 -2.51123404502868652 -88.803802490234375
34.9520339965820312 -1.83175921440124512 -88.8039016723632812
34.9786796569824219 -1.22148287296295166 -88.8041000366210938
35.9945182800292969 -0.628286898136138916 -88.80419921875
36 6.51977996872672716e-14 -88.8042984008789062
37.9942131042480469 0.663191735744476318 -88.8043975830078125
36.9774589538574219 1.29128193855285645 -88.8044967651367188
34.9520339965820312 1.83175921440124512 -88.8046035766601562
36.9098701477050781 2.58099055290222168 -88.8047027587890625
34.8668136596679688 3.05045223236083984 -88.8048019409179688
34.8082656860351562 3.65850472450256348 -88.804901123046875
33.7465705871582031 4.14355611801147461 -88.8050003051757812
36.6399192810058594 5.14939212799072266 -88.8050994873046875
34.569091796875 5.47521877288818359 -88.8050994873046875
35.4530792236328125 6.25133705139160156 -88.8051986694335938
34.3569526672363281 6.67830753326416016 -88.8052978515625
34.2351608276367188 7.27692604064941406 -88.8052978515625
34.1029510498046875 7.87329339981079102 -88.8053970336914062
36.8712387084960938 9.19302845001220703 -88.8053970336914062
35.7392578125 9.57629108428955078 -88.8054962158203125
34.6054191589355469 9.92295551300048828 -88.8054962158203125
35.3832740783691406 10.817753791809082 -88.80560302734375
35.1890945434570312 11.433619499206543 -88.80560302734375
34.0386619567871094 11.7204685211181641 -88.80560302734375
35.7083168029785156 12.9967708587646484 -88.8057022094726562
34.5424766540527344 13.2596092224121094 -88.8057022094726562
35.2329940795898438 14.2350349426269531 -88.8057022094726562
34.9791793823242188 14.8477926254272461 -88.8058013916015625
35.6282730102539062 15.8627281188964844 -88.8058013916015625
34.4397010803222656 16.0594825744628906 -88.8058013916015625
35.0529594421386719 17.0964889526367188 -88.8058013916015625
34.7492523193359375 17.7056331634521484 -88.8059005737304688
34.4349594116210938 18.3093852996826172 -88.8059005737304688
34.9847984313964844 19.3923683166503906 -88.8059005737304688
42.4352378845214844 24.5000095367431641 -88.8059005737304688
42.0011978149414062 25.2368621826171875 -88.805999755859375
39.0102195739746094 24.3762722015380859 -88.805999755859375
38.5788383483886719 25.0534095764160156 -88.805999755859375
38.1357269287109375 25.7228755950927734 -88.805999755859375
36.861846923828125 25.8109302520751953 -88.805999755859375
34.7877197265625 25.2747821807861328 -88.805999755859375
31.9454154968261719 24.0726070404052734 -88.8060989379882812
33.0964546203613281 25.8577785491943359 -88.8060989379882812
32.6401405334472656 26.4314422607421875 -88.8060989379882812
30.6417694091796875 25.7115135192871094 -88.8060989379882812
30.1883831024169922 26.2423610687255859 -88.8060989379882812
29.7258014678955078 26.7652149200439453 -88.8060989379882812
28.5227832794189453 26.5979480743408203 -88.8060989379882812
28.7735881805419922 27.7863388061523438 -88.8060989379882812
28.2842750549316406 28.2842674255371094 -88.8060989379882812
27.7863483428955078 28.7735786437988281 -88.8060989379882812
27.2799263000488281 29.2541542053222656 -88.8061981201171875
26.7652263641357422 29.7257919311523438 -88.8061981201171875
26.24237060546875 30.1883735656738281 -88.8061981201171875
25.7114925384521484 30.6417865753173828 -88.8061981201171875
25.8021335601806641 31.8629856109619141 -88.8061981201171875
25.24212646484375 32.3084373474121094 -88.8061981201171875
22.2671413421630859 29.5495243072509766 -88.8061981201171875
21.1602630615234375 29.1246166229248047 -88.8061981201171875
20.0751781463623047 28.6703205108642578 -88.8061981201171875
20.1309566497802734 29.8453445434570312 -88.8061981201171875
19.0623569488525391 29.3534755706787109 -88.8061981201171875
18.0172824859619141 28.8336181640625 -88.8061981201171875
