ply
format ascii 1.0
element vertex 774
property float x
property float y
property float z
end_header
48.2640151977539062 0.811864912509918213 -69.2639541625976562
47.7246437072753906 1.7121880054473877 -70.0976104736328125
48.26470947265625 2.53904986381530762 -69.2862930297851562
48.3167037963867188 3.35342502593994141 -69.2917861938476562
48.1639862060546875 4.20537948608398438 -69.2755279541015625
47.3466224670410156 4.94231748580932617 -70.0620880126953125
47.6353492736816406 5.84893655776977539 -69.5567245483398438
47.2521858215332031 6.53881645202636719 -70.1251983642578125
47.5626678466796875 7.50272798538208008 -69.6659927368164062
47.7453422546386719 8.48250007629394531 -69.30718994140625
47.6614875793457031 9.2965240478515625 -69.359649658203125
47.6092033386230469 10.1376075744628906 -69.3986053466796875
47.200225830078125 10.822667121887207 -69.8442459106445312
47.3187675476074219 11.8208951950073242 -69.4239349365234375
46.9206619262695312 12.5045242309570312 -69.9207382202148438
47.0265998840332031 13.4996776580810547 -69.5177383422851562
46.779632568359375 14.3098678588867188 -69.530975341796875
46.5679855346679688 15.1343240737915039 -69.5455474853515625
46.34405517578125 15.9568614959716797 -69.5628890991210938
46.1119117736816406 16.7697219848632812 -69.5920028686523438
45.5556831359863281 -18.3889808654785156 -70.2025909423828125
45.8041152954101562 -17.5732841491699219 -70.1641082763671875
45.976226806640625 -16.7451686859130859 -70.10784912109375
46.2063179016113281 -15.9305706024169922 -70.0752182006835938
46.2953224182128906 -14.947239875793457 -70.5699081420898438
46.6231803894042969 -14.2837095260620117 -70.0298538208007812
46.6353607177734375 -13.3188600540161133 -70.4159011840820312
46.8670806884765625 -12.5932836532592773 -69.9632644653320312
46.91925048828125 -11.6541309356689453 -70.3290176391601562
47.2698020935058594 -10.9538097381591797 -69.917388916015625
47.2298011779785156 -10.0050086975097656 -70.2934112548828125
47.2474250793457031 -9.17039108276367188 -70.2080535888671875
47.2981033325195312 -8.33868503570556641 -70.1566925048828125
47.1996955871582031 -7.43417215347290039 -70.7016448974609375
47.7048835754394531 -6.68432903289794922 -70.2421951293945312
47.6362037658691406 -5.85015392303466797 -70.139617919921875
47.5022315979003906 -5.00673675537109375 -69.9894256591796875
47.5734901428222656 -4.17368221282958984 -69.9779052734375
47.6695976257324219 -3.33136940002441406 -70.0029296875
47.3899879455566406 -2.50075769424438477 -70.5059432983398438
47.5159492492675781 -1.68710112571716309 -70.537750244140625
47.9651870727539062 -0.798492729663848877 -69.7894668579101562
47.9561882019042969 -0.00304299220442771912 -70.1146621704101562
47.8903732299804688 0.835205614566802979 -70.0749435424804688
47.4040336608886719 1.69488978385925293 -70.4878768920898438
47.2674331665039062 2.54992794990539551 -70.4932327270507812
47.7719764709472656 3.3288276195526123 -70.0485992431640625
47.8450088500976562 4.15248966217041016 -69.7944183349609375
47.0658454895019531 4.92765283584594727 -70.4366531372070312
47.3370704650878906 5.80474996566772461 -69.9088363647460938
46.9156227111816406 6.53449678421020508 -70.455169677734375
47.2148094177246094 7.52536916732788086 -70.0090866088867188
47.2213668823242188 8.33242988586425781 -70.1096954345703125
46.8360252380371094 8.98475360870361328 -70.7010116577148438
47.3749275207519531 10.0969600677490234 -69.8324966430664062
46.8831901550292969 10.8083734512329102 -70.2078628540039062
46.7449264526367188 11.6222171783447266 -70.2527313232421875
46.84393310546875 12.602808952331543 -69.890869140625
46.7541160583496094 13.4850912094116211 -69.9828872680664062
46.5811614990234375 14.1037044525146484 -70.5240478515625
46.3973236083984375 14.9929084777832031 -70.5749740600585938
46.1799888610839844 15.9143552780151367 -70.0748519897460938
45.9968833923339844 16.7498397827148438 -70.1212158203125
45.7610702514648438 17.5634555816650391 -70.1533126831054688
45.4056282043457031 18.3500995635986328 -70.1331787109375
45.1355667114257812 -19.1552066802978516 -70.7386093139648438
45.3667793273925781 -18.3373870849609375 -70.6995010375976562
45.6030693054199219 -17.5312080383300781 -70.6698684692382812
45.6760139465332031 -16.5081691741943359 -71.056243896484375
45.958465576171875 -15.8884725570678711 -70.5452957153320312
46.0410118103027344 -14.8990211486816406 -70.9740219116210938
46.2502479553222656 -14.0889911651611328 -70.9627456665039062
46.5782852172851562 -13.4002180099487305 -70.4637451171875
46.531005859375 -12.4552249908447266 -70.8208847045898438
46.8171958923339844 -11.7447137832641602 -70.3775405883789062
46.8545265197753906 -10.8078927993774414 -70.7758636474609375
46.9872398376464844 -9.98413944244384766 -70.746307373046875
46.7569732666015625 -9.04989528656005859 -71.11834716796875
47.0355415344238281 -8.30628204345703125 -70.5883560180664062
46.8709220886230469 -7.37315607070922852 -71.1138992309570312
47.3830146789550781 -6.68574762344360352 -70.6198883056640625
47.3672370910644531 -5.86131381988525391 -70.553253173828125
46.9664192199707031 -4.89413785934448242 -70.8950424194335938
46.5604934692382812 -3.97012042999267578 -71.3039321899414062
46.9888153076171875 -3.28286862373352051 -70.8134307861328125
46.5652809143066406 -2.45053339004516602 -71.1543045043945312
47.7460136413574219 -1.56329715251922607 -70.3134307861328125
47.5464096069335938 -0.852761387825012207 -70.4707794189453125
47.3738822937011719 0.00460190465673804283 -71.0103912353515625
47.2222480773925781 0.808332860469818115 -70.9283065795898438
46.67376708984375 1.74387145042419434 -71.333282470703125
46.5505256652832031 2.5709230899810791 -71.1790237426757812
47.2607536315917969 3.26456165313720703 -70.2471771240234375
46.4230079650878906 4.00475120544433594 -71.1593246459960938
46.4098129272460938 4.8213658332824707 -71.2503814697265625
46.4601669311523438 5.6270909309387207 -71.2751922607421875
46.9115447998046875 6.58681106567382812 -70.2326278686523438
46.5750694274902344 7.33789205551147461 -70.8397750854492188
46.514190673828125 8.16386032104492188 -70.9201889038085938
46.8778953552246094 9.15320587158203125 -70.5690078735351562
46.7817916870117188 9.96906471252441406 -70.6159896850585938
46.5513496398925781 10.7690238952636719 -70.589691162109375
46.1419448852539062 11.4415969848632812 -71.1289749145507812
46.3916358947753906 12.4270639419555664 -70.737884521484375
46.4411392211914062 13.4727554321289062 -70.4720230102539062
46.3442916870117188 14.080662727355957 -70.9876174926757812
46.203155517578125 15.0482320785522461 -70.5639266967773438
45.8825035095214844 15.8370294570922852 -70.5678787231445312
45.6596298217773438 16.537994384765625 -70.965606689453125
45.4985885620117188 17.5131359100341797 -70.6220321655273438
45.3378372192382812 18.3374156951904297 -70.6736984252929688
44.8584403991699219 -19.0853958129882812 -71.203857421875
45.1778297424316406 -18.2830829620361328 -71.1843643188476562
45.3390693664550781 -17.2942981719970703 -71.576751708984375
45.5784759521484375 -16.6757698059082031 -71.0797958374023438
45.5752410888671875 -15.6598129272460938 -71.41766357421875
45.8889656066894531 -14.9856843948364258 -70.9604339599609375
46.1672515869140625 -14.1810569763183594 -70.9329833984375
46.1093559265136719 -13.2237253189086914 -71.2793502807617188
45.8728446960449219 -12.2794170379638672 -71.7733840942382812
46.4067230224609375 -11.5949497222900391 -71.1905746459960938
46.7128410339355469 -10.7559728622436523 -70.8142623901367188
46.4987411499023438 -9.83533477783203125 -71.6627120971679688
46.7604713439941406 -9.13285064697265625 -71.0685272216796875
46.0393600463867188 -7.94079160690307617 -71.9085845947265625
46.9422798156738281 -7.47971916198730469 -70.9839935302734375
46.6112136840820312 -6.53667116165161133 -71.375701904296875
46.120452880859375 -5.58918428421020508 -71.79119873046875
46.6178665161132812 -4.91716527938842773 -71.1968917846679688
46.6564712524414062 -4.10303735733032227 -71.15966796875
46.3061447143554688 -3.22963547706604004 -71.6710662841796875
47.607208251953125 -2.36627864837646484 -70.7597732543945312
46.4476776123046875 -1.68866062164306641 -71.6947021484375
46.6079597473144531 -0.839598000049591064 -71.7642135620117188
47.0499305725097656 0.0041203964501619339 -71.3487091064453125
47.3958816528320312 0.558828473091125488 -70.847564697265625
46.8158836364746094 1.61105597019195557 -71.1542205810546875
46.2666664123535156 2.46317529678344727 -71.5630340576171875
46.5124053955078125 3.28286409378051758 -70.9883651733398438
46.1421432495117188 4.02659797668457031 -71.5528945922851562
46.1061286926269531 4.7920379638671875 -71.5728988647460938
46.5169105529785156 5.67881917953491211 -70.705902099609375
46.4284439086914062 6.54016637802124023 -71.243316650390625
45.9241676330566406 7.19317388534545898 -71.6856536865234375
45.8256607055664062 7.95579051971435547 -71.6655044555664062
46.2771720886230469 8.970184326171875 -71.4205703735351562
45.7930717468261719 9.55995368957519531 -71.9757308959960938
46.0819358825683594 10.5928783416748047 -71.5765838623046875
45.8979530334472656 11.416172981262207 -71.5708541870117188
45.8110008239746094 12.1776323318481445 -71.6615447998046875
46.0947456359863281 13.2301483154296875 -71.2804794311523438
46.1465110778808594 14.228240966796875 -71.052276611328125
45.8965492248535156 14.8725614547729492 -71.419708251953125
45.680999755859375 15.7567720413208008 -71.089385986328125
45.4526901245117188 16.4888420104980469 -71.46453857421875
45.29547119140625 17.2794113159179688 -71.5575637817382812
45.06103515625 18.2549724578857422 -71.1678543090820312
45.0013465881347656 19.1253299713134766 -71.2635345458984375
44.3772468566894531 -19.6725406646728516 -72.2301025390625
44.6009140014648438 -18.8510074615478516 -72.1945953369140625
44.8854141235351562 -18.0505027770996094 -72.1634292602539062
45.1801185607910156 -17.4336929321289062 -71.7292251586914062
45.163787841796875 -16.4217777252197266 -72.0163650512695312
44.9141921997070312 -15.3591184616088867 -72.304168701171875
45.0618095397949219 -14.5280361175537109 -72.2724151611328125
45.1493873596191406 -13.7549667358398438 -72.1695327758789062
45.7907333374023438 -13.1511878967285156 -71.6980209350585938
45.0719757080078125 -12.0747642517089844 -72.6167221069335938
45.7386703491210938 -11.3970088958740234 -72.1125106811523438
45.9422721862792969 -10.5838699340820312 -72.1125640869140625
46.458953857421875 -9.9154052734375 -71.6358108520507812
46.1679801940917969 -8.96813583374023438 -72.0125503540039062
45.6956672668457031 -7.95286655426025391 -72.3338851928710938
46.2795562744140625 -7.35380125045776367 -71.8676300048828125
46.639739990234375 -6.67801523208618164 -71.4513931274414062
46.3155021667480469 -5.71816635131835938 -71.7037506103515625
45.8629264831542969 -4.79996633529663086 -72.0974807739257812
45.8832130432128906 -4.01783657073974609 -72.0389938354492188
46.5829391479492188 -3.00985574722290039 -71.0673675537109375
46.3713607788085938 -2.31128668785095215 -71.5609207153320312
46.2436599731445312 -1.64550411701202393 -72.2102279663085938
46.3102264404296875 -0.809042692184448242 -72.2330398559570312
46.9507484436035156 -0.113629437983036041 -71.1782150268554688
46.6726303100585938 0.769575536251068115 -71.730926513671875
46.1502342224121094 1.65179860591888428 -72.1236419677734375
46.4763221740722656 2.38626384735107422 -71.160125732421875
45.5730171203613281 3.19759893417358398 -72.3904266357421875
45.5663223266601562 3.93311405181884766 -72.366180419921875
45.8401756286621094 4.81046199798583984 -72.04364013671875
46.173675537109375 5.69316244125366211 -71.6961135864257812
45.9191932678222656 6.41911506652832031 -72.22772216796875
45.6861572265625 7.21175098419189453 -72.1389846801757812
45.5143280029296875 7.98583173751831055 -72.1494598388671875
46.5005722045898438 9.26155757904052734 -71.176971435546875
45.9617080688476562 9.77143478393554688 -71.973876953125
45.7901687622070312 10.572484016418457 -71.9769668579101562
45.574493408203125 11.3645458221435547 -71.9543991088867188
44.9569816589355469 11.9888038635253906 -72.5109710693359375
45.3415908813476562 12.9482946395874023 -72.1392669677734375
45.3625602722167969 13.7333154678344727 -72.3634185791015625
45.2776145935058594 14.5275993347167969 -72.567962646484375
45.3329849243164062 15.4498405456542969 -72.6634140014648438
44.9902763366699219 16.198486328125 -72.6109542846679688
45.0118789672851562 17.2453441619873047 -72.1128463745117188
44.8441047668457031 18.0481109619140625 -72.2227096557617188
44.739227294921875 18.7668304443359375 -72.4090118408203125
43.748321533203125 -21.1892967224121094 -72.9323043823242188
43.9741630554199219 -20.3989505767822266 -72.8779754638671875
44.2269439697265625 -19.6231613159179688 -72.8407516479492188
44.4349288940429688 -18.8153820037841797 -72.7811203002929688
44.6496200561523438 -17.9986686706542969 -72.7283172607421875
44.8961868286132812 -17.2174549102783203 -72.7071075439453125
44.8984107971191406 -16.4122238159179688 -72.5583648681640625
44.6992301940917969 -15.3111696243286133 -72.8447418212890625
44.3325119018554688 -14.1474370956420898 -73.1253128051757812
44.3392753601074219 -13.450373649597168 -72.9808425903320312
45.341949462890625 -13.0900774002075195 -72.0057220458984375
45.1403770446777344 -12.1078357696533203 -72.4008026123046875
45.3397445678710938 -11.2700519561767578 -72.4088821411132812
45.5690040588378906 -10.5624170303344727 -72.4868850708007812
45.3896255493164062 -9.63875961303710938 -73.0188369750976562
45.4197731018066406 -8.77318668365478516 -72.8913421630859375
44.989349365234375 -7.04993247985839844 -73.0877838134765625
44.9201736450195312 -6.24837017059326172 -72.92938232421875
44.9970550537109375 -5.48795461654663086 -72.921600341796875
45.06988525390625 -4.70016336441040039 -72.9141616821289062
45.17138671875 -3.96667313575744629 -72.9465484619140625
45.7155570983886719 -3.17585849761962891 -72.5276336669921875
45.5375213623046875 -2.44171786308288574 -73.0994644165039062
45.6250381469726562 -1.64088940620422363 -73.1648101806640625
46.0110511779785156 -0.804761230945587158 -72.6819839477539062
45.4195213317871094 0.0300199799239635468 -73.07293701171875
45.9347953796386719 0.797027707099914551 -72.6133804321289062
45.3070564270019531 1.59027755260467529 -72.9409637451171875
45.2383766174316406 2.38183379173278809 -72.8510894775390625
45.291534423828125 3.13094210624694824 -72.8748855590820312
45.6055870056152344 4.0128779411315918 -72.5165176391601562
46.0991249084472656 4.80842828750610352 -72.4511184692382812
45.4232711791992188 5.52371644973754883 -73.068084716796875
45.2565155029296875 6.36150455474853516 -73.1062698364257812
45.3937911987304688 7.19347620010375977 -72.6417388916015625
44.8897018432617188 7.88052845001220703 -73.106414794921875
44.798736572265625 8.61847114562988281 -73.18572998046875
45.6390419006347656 9.74447250366210938 -72.4020843505859375
45.456878662109375 10.4504356384277344 -72.3253021240234375
45.4805870056152344 11.5487565994262695 -71.8577651977539062
45.3277244567871094 12.4416742324829102 -72.2655410766601562
44.4693412780761719 12.6925992965698242 -72.904754638671875
45.5991058349609375 14.2757225036621094 -72.380340576171875
45.5748825073242188 14.8995151519775391 -72.5220260620117188
45.243743896484375 15.5936174392700195 -72.5971450805664062
45.0005760192871094 16.397125244140625 -72.4192276000976562
44.3823394775390625 16.9359569549560547 -73.14208984375
44.5309028625488281 17.9868736267089844 -72.687042236328125
44.5097084045410156 18.8644752502441406 -72.3443374633789062
44.2110137939453125 19.5418510437011719 -72.9252471923828125
43.3105545043945312 -21.9075336456298828 -73.6965713500976562
43.6228103637695312 -21.119873046875 -73.6158523559570312
43.6423377990722656 -20.4347991943359375 -73.17626953125
44.0146636962890625 -19.5591773986816406 -73.4254379272460938
44.0696487426757812 -18.5261459350585938 -73.8086166381835938
44.3809928894042969 -18.1546440124511719 -73.0695419311523438
44.4146575927734375 -16.8725242614746094 -73.6851577758789062
44.6572151184082031 -16.4030780792236328 -73.1040573120117188
44.4246788024902344 -15.3029413223266602 -73.33868408203125
44.6403656005859375 -14.8172636032104492 -72.6488571166992188
43.9410285949707031 -13.4514217376708984 -73.3054962158203125
43.6685371398925781 -12.4673347473144531 -73.6499404907226562
43.93402099609375 -11.8052473068237305 -73.7148895263671875
44.2562789916992188 -10.9850368499755859 -73.858612060546875
44.8708763122558594 -10.3663043975830078 -73.3954544067382812
45.0737228393554688 -9.57263755798339844 -73.412200927734375
45.6909637451171875 -8.91051101684570312 -72.3673477172851562
45.0699195861816406 -7.99570751190185547 -73.1510391235351562
45.0422325134277344 -7.22771453857421875 -73.0480728149414062
44.4647979736328125 -6.08284139633178711 -74.0138626098632812
44.6970252990722656 -5.48232460021972656 -73.3714599609375
44.8103141784667969 -4.70585107803344727 -73.3861770629882812
44.6150856018066406 -3.93445634841918945 -73.8943557739257812
45.2675590515136719 -3.07885479927062988 -72.9283065795898438
44.6880531311035156 -2.34132075309753418 -73.8876724243164062
45.8873176574707031 -1.45252180099487305 -72.5424880981445312
45.9780769348144531 -0.810922324657440186 -72.6436920166015625
45.0203933715820312 0.00111214315984398127 -73.3665542602539062
44.9709205627441406 0.785628855228424072 -73.3276519775390625
44.5370903015136719 1.5103297233581543 -73.6936798095703125
45.4178085327148438 2.83404970169067383 -72.5403823852539062
45.0204849243164062 3.13552403450012207 -73.4267501831054688
45.0658378601074219 3.91926836967468262 -73.491851806640625
45.4979515075683594 5.01536130905151367 -73.2996902465820312
45.0263938903808594 5.50687980651855469 -73.6018524169921875
45.38299560546875 6.42882966995239258 -72.8675384521484375
44.81243896484375 7.12901115417480469 -73.6270828247070312
44.4191246032714844 8.60193443298339844 -73.5594863891601562
45.4040031433105469 9.72288990020751953 -72.7420196533203125
44.0270462036132812 10.1688737869262695 -73.506378173828125
43.8602256774902344 10.9037351608276367 -73.5128021240234375
43.7224807739257812 11.6486387252807617 -73.5493927001953125
43.7024879455566406 12.3703298568725586 -73.65899658203125
44.9900245666503906 14.1775064468383789 -72.9044647216796875
44.2111930847167969 14.194371223449707 -73.7989501953125
45.0191574096679688 15.4883298873901367 -73.0971298217773438
44.9735794067382812 16.3922519683837891 -73.1614303588867188
43.6780815124511719 16.5659503936767578 -73.9489593505859375
44.4781761169433594 18.0092277526855469 -72.9800262451171875
44.0551261901855469 18.7284812927246094 -73.2438201904296875
43.8691673278808594 19.5251064300537109 -73.3521270751953125
43.3794441223144531 20.23419189453125 -73.2509078979492188
42.9498558044433594 -21.8755073547363281 -73.7401580810546875
43.0599288940429688 -20.7203655242919922 -74.6556625366210938
43.5303497314453125 -20.4332466125488281 -73.8567962646484375
43.8855209350585938 -19.6321640014648438 -73.8721847534179688
43.3096733093261719 -18.2002201080322266 -74.6141357421875
44.1372528076171875 -17.9469795227050781 -73.8188247680664062
44.1268539428710938 -16.8527164459228516 -74.1694183349609375
44.2009658813476562 -16.0705318450927734 -74.0474853515625
43.8153190612792969 -14.9274911880493164 -74.2674102783203125
43.6920509338378906 -14.2212543487548828 -73.9820327758789062
43.4624176025390625 -13.1472921371459961 -74.2744293212890625
43.5221328735351562 -12.4376640319824219 -74.1938552856445312
43.7188644409179688 -11.7079782485961914 -74.2240524291992188
44.26898193359375 -10.9956846237182617 -73.7205352783203125
44.1145782470703125 -10.1943426132202148 -74.2464599609375
43.8627281188964844 -9.30934810638427734 -74.76690673828125
44.094696044921875 -8.42210102081298828 -74.7964324951171875
44.4823532104492188 -7.80740928649902344 -74.1473312377929688
44.4690017700195312 -7.04103708267211914 -74.0449905395507812
44.5189590454101562 -6.26556253433227539 -73.9909515380859375
44.4973068237304688 -4.68977451324462891 -73.8545913696289062
44.5694999694824219 -3.88130307197570801 -73.8787460327148438
44.3926963806152344 -3.07820391654968262 -74.3817977905273438
45.5870819091796875 -2.36703681945800781 -73.3731307983398438
44.3315582275390625 -1.52592134475708008 -74.3119049072265625
44.2412490844726562 -0.734509050846099854 -74.2213134765625
44.5764083862304688 -0.0515102595090866089 -73.6336441040039062
44.26031494140625 1.51838052272796631 -74.2284317016601562
44.624542236328125 2.38157796859741211 -73.8077011108398438
45.01275634765625 3.41541504859924316 -73.2637557983398438
44.5425758361816406 3.89099979400634766 -74.526702880859375
44.7002029418945312 4.70305061340332031 -73.9874267578125
44.6260566711425781 5.48068618774414062 -73.993133544921875
44.7490997314453125 7.11355876922607422 -73.5615005493164062
44.3285675048828125 7.81550836563110352 -74.0400314331054688
44.0770606994628906 8.56934928894042969 -73.9341506958007812
43.3592262268066406 9.19666671752929688 -74.2377853393554688
43.2755622863769531 9.94912052154541016 -74.2924575805664062
43.45550537109375 10.8889989852905273 -73.8247604370117188
43.4156646728515625 11.6470708847045898 -73.9873275756835938
43.430816650390625 12.3953046798706055 -74.1528549194335938
43.4465408325195312 13.1501836776733398 -74.30718994140625
43.3093109130859375 13.9615688323974609 -74.3288726806640625
44.6691818237304688 15.4733448028564453 -73.4920806884765625
43.4325942993164062 15.768528938293457 -74.2273788452148438
43.1617240905761719 16.5072479248046875 -74.2490997314453125
43.0236625671386719 17.2068996429443359 -74.3217391967773438
42.8791122436523438 17.9159355163574219 -74.423858642578125
43.2264785766601562 19.0760250091552734 -74.2879714965820312
43.0086212158203125 19.8442249298095703 -74.36767578125
42.0688056945800781 -22.1056137084960938 -75.1498489379882812
42.2758636474609375 -21.4037227630615234 -75.0671234130859375
42.9629173278808594 -20.9682426452636719 -74.5561981201171875
42.9073028564453125 -19.9726753234863281 -75.0072555541992188
43.8757438659667969 -19.6490631103515625 -74.6034774780273438
42.99066162109375 -18.1162567138671875 -75.1761474609375
44.1815948486328125 -18.1633796691894531 -74.5192108154296875
43.4412117004394531 -16.4972038269042969 -75.1329574584960938
44.1038627624511719 -16.5592765808105469 -74.2099533081054688
43.1729888916015625 -14.5855474472045898 -75.1157073974609375
43.5351142883300781 -14.6173505783081055 -74.2873382568359375
43.2872428894042969 -13.1635046005249023 -74.8599777221679688
43.0893363952636719 -12.1784210205078125 -75.1723480224609375
43.1568984985351562 -11.4959077835083008 -75.1282196044921875
43.1955833435058594 -10.729680061340332 -75.1453857421875
43.7451286315917969 -10.0946884155273438 -74.632232666015625
44.3133468627929688 -9.47319126129150391 -74.0658798217773438
43.6304969787597656 -8.40739727020263672 -75.1381149291992188
44.4106483459472656 -7.95855712890625 -74.120513916015625
43.6507835388183594 -6.85397195816040039 -74.8967819213867188
43.2552146911621094 -6.04595565795898438 -75.2151031494140625
44.0327911376953125 -5.39770126342773438 -74.9798660278320312
43.4230461120605469 -4.57403898239135742 -75.2051925659179688
43.9948348999023438 -3.85073757171630859 -74.833770751953125
44.1260833740234375 -3.06399416923522949 -74.8702926635742188
44.3642539978027344 -2.31733322143554688 -74.307281494140625
43.6707077026367188 -1.47539103031158447 -75.2752914428710938
43.9128990173339844 -0.780321121215820312 -74.6548233032226562
43.4620513916015625 -0.0204203426837921143 -75.0319366455078125
43.5032730102539062 0.681505143642425537 -75.0649261474609375
43.9395675659179688 1.53763771057128906 -74.683135986328125
44.027740478515625 2.29222631454467773 -74.7730178833007812
44.1335487365722656 3.05548930168151855 -74.8863754272460938
44.8578758239746094 4.87947607040405273 -73.4824066162109375
43.7868614196777344 5.36928272247314453 -74.8269119262695312
43.1210136413574219 6.00570249557495117 -75.2067718505859375
44.2129249572753906 6.98597002029418945 -74.47552490234375
43.6043853759765625 7.68571233749389648 -74.9354705810546875
43.0984840393066406 9.15790939331054688 -74.7444381713867188
42.9778404235839844 9.91743183135986328 -74.7711105346679688
42.8306961059570312 10.6615133285522461 -74.785858154296875
42.7222404479980469 11.3804283142089844 -74.826690673828125
42.7161979675292969 12.1407251358032227 -74.958404541015625
43.5856399536132812 13.5989971160888672 -74.308746337890625
42.9952659606933594 13.9248895645141602 -74.7941360473632812
44.5424690246582031 15.3515453338623047 -74.0767593383789062
42.4130325317382812 15.4255819320678711 -74.7838058471679688
42.2485084533691406 16.1410427093505859 -74.864715576171875
43.2155418395996094 17.485382080078125 -74.2528152465820312
42.5452728271484375 17.9540309906005859 -74.866668701171875
42.8554954528808594 19.1244888305664062 -74.6231765747070312
42.3291015625 19.4229507446289062 -75.2229766845703125
41.46087646484375 -22.7199459075927734 -75.68695068359375
42.225311279296875 -22.461181640625 -74.837249755859375
41.4747238159179688 -20.9719638824462891 -75.7419509887695312
41.8204498291015625 -20.3068122863769531 -75.73675537109375
42.8344650268554688 -20.0468978881835938 -74.8679885864257812
42.3833999633789062 -18.8268661499023438 -75.6647262573242188
42.95599365234375 -18.2724819183349609 -75.0810546875
42.9635467529296875 -17.282257080078125 -75.6182174682617188
43.0351486206054688 -16.4932117462158203 -75.4569625854492188
42.6937446594238281 -15.3999748229980469 -75.729339599609375
43.1141319274902344 -15.0344104766845703 -75.1194992065429688
42.5372772216796875 -13.6074323654174805 -75.895751953125
42.6809120178222656 -12.8806285858154297 -75.8318557739257812
43.069122314453125 -12.3929262161254883 -75.2417373657226562
43.1781883239746094 -11.6167383193969727 -75.1839218139648438
44.0721206665039062 -10.9512042999267578 -75.0577774047851562
42.7989921569824219 -9.74732685089111328 -76.0968856811523438
43.1208839416503906 -9.15761566162109375 -75.4721221923828125
44.0134010314941406 -8.82455348968505859 -74.4348831176757812
42.7343254089355469 -7.46036195755004883 -75.7510986328125
43.7215194702148438 -6.8838958740234375 -74.8996429443359375
43.8903312683105469 -6.20055532455444336 -74.9361724853515625
44.3389472961425781 -4.93291091918945312 -74.4081039428710938
43.206939697265625 -3.82890844345092773 -75.7102432250976562
43.8383674621582031 -3.06697392463684082 -75.3465576171875
44.1227760314941406 -2.44133162498474121 -74.859466552734375
44.0715408325195312 -1.80790328979492188 -74.6684494018554688
43.2548484802246094 -0.725606203079223633 -75.5984954833984375
43.08843994140625 -0.00264891027472913265 -75.4620208740234375
43.4436798095703125 0.833800733089447021 -75.0065536499023438
43.2929306030273438 1.46655809879302979 -75.6309127807617188
43.4429931640625 2.20849013328552246 -75.7589950561523438
44.0633735656738281 3.21013927459716797 -74.7227935791015625
43.2415237426757812 3.85187697410583496 -75.7687911987304688
43.4671058654785156 4.54136180877685547 -75.1193161010742188
42.8925666809082031 5.26109695434570312 -75.6193084716796875
42.7501640319824219 6.00299978256225586 -75.5503616333007812
42.6816864013671875 6.74346923828125 -75.5890884399414062
42.6542816162109375 7.45751714706420898 -75.6196365356445312
42.6295127868652344 8.20974159240722656 -75.6859054565429688
42.6996002197265625 9.87120437622070312 -75.279632568359375
42.52569580078125 10.6392850875854492 -75.3052825927734375
44.662445068359375 13.1660470962524414 -74.5646209716796875
42.3641395568847656 12.1250572204589844 -75.4272079467773438
43.2215614318847656 13.7737255096435547 -74.6773147583007812
42.7094573974609375 13.9007482528686523 -75.3503875732421875
42.3861541748046875 14.4787616729736328 -75.9193496704101562
44.4993133544921875 15.8511362075805664 -74.8516006469726562
41.9891777038574219 16.1234550476074219 -75.3768692016601562
41.9222679138183594 16.857635498046875 -75.514984130859375
42.6909751892089844 18.2897872924804688 -74.8556289672851562
42.8086090087890625 18.5853481292724609 -74.7108383178710938
42.3151092529296875 19.8695850372314453 -75.1501693725585938
41.2035942077636719 -20.9244327545166016 -76.1527328491210938
42.8257179260253906 -20.70904541015625 -75.3911666870117188
41.7892684936523438 -19.4870147705078125 -76.052703857421875
41.8740806579589844 -18.4905376434326172 -76.5246047973632812
42.9948463439941406 -18.6161518096923828 -74.8878250122070312
42.8890609741210938 -17.4546737670898438 -75.3848800659179688
42.3839302062988281 -16.0903873443603516 -76.2456817626953125
41.886322021484375 -14.9747743606567383 -76.4331817626953125
42.0507469177246094 -14.2986154556274414 -76.3771743774414062
42.1427001953125 -13.5736207962036133 -76.2636032104492188
42.6883544921875 -13.1839704513549805 -75.71405029296875
41.9012832641601562 -11.8644266128540039 -76.3921585083007812
43.2326507568359375 -11.751708984375 -75.8947677612304688
42.6448287963867188 -10.6392240524291992 -75.9289627075195312
42.7829437255859375 -9.89070701599121094 -75.892303466796875
43.1280593872070312 -9.47507762908935547 -75.2021484375
42.8094673156738281 -8.41576290130615234 -75.5984649658203125
42.4285125732421875 -7.47188472747802734 -76.0517654418945312
42.5035934448242188 -6.73014402389526367 -76.0001144409179688
42.1788902282714844 -5.86814594268798828 -76.4120712280273438
42.2394638061523438 -5.19119453430175781 -76.4338455200195312
42.8488807678222656 -4.50160408020019531 -76.0403823852539062
43.3326797485351562 -3.70384478569030762 -75.5527801513671875
42.7041206359863281 -2.9907524585723877 -76.541412353515625
43.7196159362792969 -2.30971860885620117 -75.8345870971679688
42.5657539367675781 -1.4304732084274292 -76.4052581787109375
42.9396209716796875 -0.763965725898742676 -75.917694091796875
42.8756141662597656 -0.00787231419235467911 -75.8649520874023438
43.3296699523925781 1.61302065849304199 -75.499481201171875
43.3993453979492188 2.40355110168457031 -75.6135101318359375
43.0825271606445312 3.02888202667236328 -76.13134765625
43.0032386779785156 3.7917020320892334 -76.119720458984375
42.3512802124023438 4.60734462738037109 -76.4683837890625
42.1043853759765625 5.22737741470336914 -76.4024887084960938
42.0074996948242188 5.84576034545898438 -76.3543853759765625
42.7845687866210938 7.62342405319213867 -75.5702590942382812
42.3394889831542969 8.20440673828125 -76.0422286987304688
42.2461700439453125 8.95766925811767578 -76.0622711181640625
42.4318199157714844 9.85185527801513672 -75.7347259521484375
42.3062286376953125 10.6458339691162109 -75.7773666381835938
42.0817527770996094 11.1241426467895508 -76.2919998168945312
41.992645263671875 11.8934917449951172 -76.3178558349609375
42.2560462951660156 12.8588705062866211 -76.0521011352539062
42.365814208984375 13.6385812759399414 -76.3359832763671875
42.1396102905273438 14.4191417694091797 -76.3631973266601562
41.7276039123535156 15.1546106338500977 -76.2195510864257812
41.5084953308105469 15.8500509262084961 -76.238067626953125
41.6959114074707031 16.8562202453613281 -75.947021484375
41.6369895935058594 17.5756397247314453 -76.11517333984375
41.5829353332519531 18.3004226684570312 -76.3015823364257812
41.6840324401855469 19.4401893615722656 -75.9578018188476562
41.4522438049316406 20.1706771850585938 -76.0640411376953125
40.5265922546386719 -22.3415355682373047 -76.8586196899414062
40.8816375732421875 -20.8619956970214844 -76.5671539306640625
41.4499244689941406 -20.2948760986328125 -75.8888702392578125
41.2312965393066406 -19.2063388824462891 -76.9380645751953125
41.7939414978027344 -18.6418724060058594 -76.4749374389648438
42.0393218994140625 -17.9137725830078125 -76.4709854125976562
42.3477134704589844 -17.1193618774414062 -76.4879302978515625
41.63427734375 -15.6885080337524414 -77.1359786987304688
43.4555244445800781 -16.5608634948730469 -75.2166671752929688
41.2394447326660156 -14.0237655639648438 -77.1001663208007812
42.1940422058105469 -13.8729801177978516 -76.0783538818359375
44.0250511169433594 -13.00469970703125 -75.283935546875
41.6575660705566406 -11.1444282531738281 -76.751617431640625
42.2000961303710938 -10.5661764144897461 -76.2164459228515625
41.607757568359375 -9.49090480804443359 -77.2293319702148438
41.5916290283203125 -8.69642829895019531 -77.090576171875
41.6370086669921875 -7.98154067993164062 -76.9988327026367188
41.6974678039550781 -7.30775547027587891 -76.8894500732421875
41.7674293518066406 -6.61116838455200195 -76.8824844360351562
41.8681907653808594 -5.86101627349853516 -76.8611602783203125
42.520416259765625 -5.19646024703979492 -76.478271484375
42.6384811401367188 -4.47343683242797852 -76.5395050048828125
42.72406005859375 -3.7233123779296875 -76.5768356323242188
42.3534660339355469 -2.93019628524780273 -76.9871749877929688
42.2894134521484375 -2.15298366546630859 -76.944244384765625
42.7531242370605469 -1.56313729286193848 -76.4543533325195312
42.1854133605957031 -0.729193210601806641 -76.7995681762695312
42.2576446533203125 -0.0163312312215566635 -76.8553543090820312
42.2988662719726562 0.714840054512023926 -76.9065017700195312
42.3380889892578125 1.4172137975692749 -76.947235107421875
42.7150688171386719 2.27294206619262695 -76.4816207885742188
42.2786064147949219 3.00015521049499512 -76.9854507446289062
42.9392738342285156 3.66134309768676758 -75.9607009887695312
42.3961639404296875 4.42639493942260742 -76.3797683715820312
41.892486572265625 5.15742397308349609 -76.847869873046875
41.8533058166503906 5.86068344116210938 -76.849853515625
42.262542724609375 6.66846084594726562 -76.1522674560546875
41.810699462890625 7.18449258804321289 -76.90631103515625
41.9038352966308594 7.99118614196777344 -77.0556564331054688
41.8219566345214844 8.76899814605712891 -77.1037063598632812
42.0033035278320312 9.67777633666992188 -76.7036666870117188
41.9843788146972656 10.4202413558959961 -76.7848052978515625
41.8239173889160156 11.1265573501586914 -76.8096237182617188
41.7853050231933594 11.8454055786132812 -76.8900070190429688
42.1624221801757812 13.1987752914428711 -76.3288955688476562
42.5498847961425781 14.1121730804443359 -75.4339447021484375
41.9883880615234375 14.4138574600219727 -76.3275985717773438
41.5420684814453125 15.180546760559082 -76.2707138061523438
41.1542587280273438 16.5075607299804688 -76.9097366333007812
41.3434257507324219 17.5839900970458984 -76.5921249389648438
41.2558403015136719 18.3082447052001953 -76.7603225708007812
41.0268363952636719 19.0518398284912109 -76.8739852905273438
41.0370597839355469 20.0128898620605469 -76.361358642578125
40.2072181701660156 -22.9921646118164062 -77.612823486328125
40.1306114196777344 -21.2112674713134766 -77.6257858276367188
40.4032554626464844 -20.4855327606201172 -77.5715255737304688
40.6843910217285156 -19.8209266662597656 -77.5276565551757812
40.5412483215332031 -18.7409095764160156 -77.8917999267578125
41.2416038513183594 -18.3361701965332031 -77.4449386596679688
41.5682907104492188 -17.6029586791992188 -77.4546432495117188
40.8135757446289062 -16.0916614532470703 -77.9741363525390625
40.7631454467773438 -15.319392204284668 -77.8410415649414062
42.0180740356445312 -15.8524894714355469 -76.8781585693359375
41.5415191650390625 -14.5782794952392578 -76.5446624755859375
41.0433502197265625 -13.3016328811645508 -77.4254302978515625
41.1023483276367188 -12.5725421905517578 -77.3202362060546875
40.901641845703125 -11.5699567794799805 -77.6697540283203125
40.9124755859375 -10.8836450576782227 -77.6210403442382812
41.0472564697265625 -10.1946268081665039 -77.5818252563476562
41.1978111267089844 -9.45838260650634766 -77.5662689208984375
41.9694747924804688 -9.2183837890625 -76.5399703979492188
41.410797119140625 -8.015655517578125 -77.4771957397460938
41.4036827087402344 -7.29093456268310547 -77.3647079467773438
41.7898445129394531 -6.76864814758300781 -76.640411376953125
41.1497230529785156 -5.7651829719543457 -77.7679901123046875
43.7817497253417969 -4.56909799575805664 -76.24237060546875
41.4144706726074219 -4.417144775390625 -77.8068618774414062
41.6091690063476562 -3.6486809253692627 -77.9158935546875
42.5700302124023438 -3.01564335823059082 -76.9612884521484375
41.4467315673828125 -0.693287074565887451 -77.7075653076171875
41.87933349609375 0.0171053484082221985 -77.236236572265625
42.3002281188964844 0.803145170211791992 -76.83477783203125
41.5759124755859375 1.44748830795288086 -77.785003662109375
41.9715003967285156 2.19713401794433594 -77.3544082641601562
41.9716682434082031 2.94814395904541016 -77.3913650512695312
41.4353370666503906 3.7142188549041748 -77.74627685546875
41.2029304504394531 4.37534618377685547 -77.6322479248046875
40.9319877624511719 5.04235601425170898 -77.492584228515625
40.8296089172363281 5.67922067642211914 -77.4812240600585938
40.9556808471679688 6.27981710433959961 -77.5681381225585938
41.7586441040039062 7.23303461074829102 -77.5530242919921875
41.8329048156738281 8.19608211517333984 -77.1359024047851562
41.6552352905273438 9.07461357116699219 -76.8631362915039062
41.5392303466796875 9.49669647216796875 -77.7263565063476562
41.6800918579101562 10.3975448608398438 -77.306365966796875
41.5890388488769531 11.3266029357910156 -77.0115585327148438
41.5600662231445312 11.8396444320678711 -77.4456634521484375
41.3524360656738281 12.2311878204345703 -78.0210037231445312
41.7242469787597656 13.572026252746582 -77.2496795654296875
41.7873497009277344 14.2229852676391602 -76.9998550415039062
41.0852012634277344 14.8067960739135742 -77.7643203735351562
40.684814453125 15.5875349044799805 -77.7445602416992188
40.9268951416015625 16.4943027496337891 -77.4203948974609375
40.8294525146484375 17.2110347747802734 -77.560760498046875
40.6603431701660156 17.9142227172851562 -77.6873550415039062
40.7060966491699219 19.0042781829833984 -77.2575607299804688
40.4848098754882812 19.7338848114013672 -77.3540115356445312
39.8432540893554688 -22.9995670318603516 -78.0068130493164062
39.7979965209960938 -21.1385364532470703 -78.054595947265625
39.7844047546386719 -20.1017169952392578 -78.4204025268554688
40.9898223876953125 -19.9552230834960938 -76.7005462646484375
40.5695037841796875 -18.9227790832519531 -77.8220367431640625
40.5806427001953125 -17.9604701995849609 -78.368743896484375
41.4397811889648438 -17.6936244964599609 -77.2516632080078125
41.3770637512207031 -16.8079719543457031 -77.7104415893554688
40.4548454284667969 -15.3872833251953125 -78.2493743896484375
40.478240966796875 -14.7087917327880859 -78.0636978149414062
40.3094902038574219 -13.8136186599731445 -78.4246902465820312
40.7717819213867188 -13.2744560241699219 -77.9254837036132812
40.7401123046875 -12.2733078002929688 -78.3901519775390625
40.6888694763183594 -11.5609598159790039 -78.2200164794921875
40.9190559387207031 -11.1617269515991211 -77.556243896484375
40.36651611328125 -9.94994544982910156 -78.4311676025390625
41.4449996948242188 -9.61752510070800781 -77.1936798095703125
40.7468605041503906 -8.56041145324707031 -78.3976287841796875
41.0337066650390625 -8.02261161804199219 -77.8520889282226562
40.7810249328613281 -7.12826681137084961 -78.2972640991210938
40.761474609375 -6.43926858901977539 -78.2098312377929688
41.6316566467285156 -5.42092657089233398 -77.0716705322265625
41.1841354370117188 -4.99565696716308594 -77.6904220581054688
41.1493110656738281 -4.35039091110229492 -78.279144287109375
41.2453536987304688 -3.60172724723815918 -78.3594741821289062
41.6387519836425781 -2.95921421051025391 -77.803924560546875
41.2308349609375 -2.11321473121643066 -78.2456436157226562
41.960906982421875 -1.8545759916305542 -76.9359664916992188
41.0688095092773438 -0.718483686447143555 -78.0721054077148438
41.0986289978027344 -0.0095022423192858696 -78.0937728881835938
41.13116455078125 0.719021260738372803 -78.1231307983398438
41.8860626220703125 1.80817914009094238 -77.2973403930664062
41.2732925415039062 2.13967180252075195 -78.2625045776367188
41.2738800048828125 2.91566205024719238 -78.28472900390625
41.6538467407226562 3.62523150444030762 -77.350738525390625
40.8957672119140625 4.31732845306396484 -78.0891189575195312
41.3126220703125 6.61142158508300781 -77.8898086547851562
41.4679756164550781 7.27843427658081055 -78.088165283203125
41.3817863464355469 8.00374412536621094 -78.1304244995117188
41.3386497497558594 8.74150943756103516 -78.173583984375
41.2060089111328125 9.47679996490478516 -78.208160400390625
40.8403968811035156 9.98422908782958984 -78.6424560546875
41.2772445678710938 11.3779239654541016 -77.59918212890625
41.3033943176269531 11.8556251525878906 -77.9951705932617188
41.0365715026855469 12.2808609008789062 -78.566009521484375
41.4059944152832031 13.548029899597168 -77.7330856323242188
40.6557998657226562 14.0035543441772461 -78.6194915771484375
40.6651115417480469 14.7900381088256836 -78.2126083374023438
40.267364501953125 15.4629650115966797 -78.123504638671875
40.7695159912109375 16.7265453338623047 -77.48858642578125
40.9966468811035156 17.2792530059814453 -77.1431350708007812
39.8910751342773438 17.5206108093261719 -78.507171630859375
40.3274497985839844 18.9166736602783203 -77.6596527099609375
39.783660888671875 19.3165645599365234 -78.19415283203125
39.4895896911621094 19.9923439025878906 -78.2336349487304688
38.9858932495117188 -23.1347484588623047 -79.0285568237304688
39.4165229797363281 -23.00927734375 -78.4092941284179688
38.9890480041503906 -21.4132518768310547 -79.0808792114257812
39.4553108215332031 -21.0647983551025391 -78.4592132568359375
39.6983833312988281 -20.3642330169677734 -78.3564834594726562
39.9898452758789062 -19.5424156188964844 -78.2781219482421875
40.2057151794433594 -18.7796573638916016 -78.1911392211914062
40.1702499389648438 -17.8898029327392578 -78.6690826416015625
39.8753623962402344 -16.847625732421875 -78.92987060546875
40.05145263671875 -16.1037807464599609 -78.817108154296875
41.2879066467285156 -16.2145156860351562 -77.8556671142578125
40.4266166687011719 -15.1090612411499023 -78.0479507446289062
40.0641822814941406 -13.6998262405395508 -78.9273529052734375
40.2561912536621094 -13.0034408569335938 -78.9128341674804688
40.4296302795410156 -12.2939453125 -78.8569488525390625
40.5331916809082031 -11.7978830337524414 -78.362274169921875
40.0090484619140625 -10.5959625244140625 -79.0014190673828125
40.027099609375 -9.92797183990478516 -78.8800201416015625
40.5500068664550781 -9.42657184600830078 -78.3368911743164062
41.0148735046386719 -8.76661300659179688 -77.7999038696289062
40.4331016540527344 -7.82582187652587891 -78.8387298583984375
39.9092330932617188 -6.96404695510864258 -79.0669097900390625
40.3544502258300781 -6.41158437728881836 -78.5961227416992188
40.142242431640625 -5.67293548583984375 -79.0279083251953125
40.322052001953125 -4.95456933975219727 -79.079345703125
41.8951492309570312 -4.38283252716064453 -77.7284469604492188
41.2816848754882812 -3.01813554763793945 -78.22119140625
40.5057182312011719 -2.11542963981628418 -79.1338348388671875
40.39398193359375 -1.37109136581420898 -79.0230865478515625
40.3868675231933594 -0.696029782295227051 -78.9774932861328125
40.7382850646972656 0.0204045102000236511 -78.5001220703125
40.5900497436523438 0.646502077579498291 -79.105438232421875
40.6067581176757812 1.38550198078155518 -79.20635986328125
40.6718101501464844 2.10566425323486328 -79.2556915283203125
40.6923866271972656 2.88578009605407715 -79.2787399291992188
41.13421630859375 3.51618218421936035 -78.193084716796875
40.3823165893554688 4.3631892204284668 -79.0250930786132812
40.0890846252441406 4.99689626693725586 -78.9332504272460938
39.9940338134765625 6.25731420516967773 -79.029998779296875
41.5170211791992188 7.10236549377441406 -78.065826416015625
41.2920455932617188 8.05460071563720703 -78.2118301391601562
41.1613616943359375 8.99596977233886719 -78.2484512329101562
40.3940315246582031 9.17328548431396484 -79.0784530639648438
40.8438301086425781 10.1621608734130859 -78.7518692016601562
40.8723831176757812 10.8559398651123047 -78.8694610595703125
41.1818199157714844 12.239649772644043 -78.4024887084960938
40.6009025573730469 12.329197883605957 -79.04730224609375
41.1539497375488281 13.4952974319458008 -78.0851821899414062
40.3496856689453125 13.8269138336181641 -79.213104248046875
40.32244873046875 14.6754302978515625 -78.621307373046875
39.9687080383300781 15.3348274230957031 -78.5391006469726562
39.3726005554199219 15.796168327331543 -79.0071868896484375
39.6887359619140625 16.8088150024414062 -78.7773895263671875
39.5309333801269531 17.5062541961669922 -78.888519287109375
39.7015876770019531 18.5609874725341797 -78.5216903686523438
39.2392158508300781 18.8721904754638672 -79.1463470458984375
39.1950340270996094 19.9742450714111328 -78.6754531860351562
38.6520118713378906 -23.1773605346679688 -79.4260025024414062
38.685882568359375 -21.3509330749511719 -79.5066375732421875
38.6191558837890625 -20.2477474212646484 -79.8733978271484375
39.1312675476074219 -19.9577674865722656 -79.3075637817382812
39.028411865234375 -18.9210205078125 -79.7044525146484375
39.2207756042480469 -18.2029571533203125 -79.5923080444335938
39.0814857482910156 -17.1910209655761719 -79.8750839233398438
39.3578376770019531 -16.4755687713623047 -79.848358154296875
41.7583999633789062 -16.7220115661621094 -78.780914306640625
39.52587890625 -15.0746355056762695 -79.5494384765625
39.2066688537597656 -14.0323944091796875 -79.7585372924804688
39.3039321899414062 -13.3040494918823242 -79.7373123168945312
39.9057464599609375 -12.9732608795166016 -79.3451766967773438
40.4311485290527344 -12.7327098846435547 -78.966766357421875
39.7435264587402344 -11.2996063232421875 -79.6086807250976562
39.7012901306152344 -10.6041927337646484 -79.4425506591796875
39.3754081726074219 -9.72487449645996094 -79.7795562744140625
39.9232635498046875 -9.22034168243408203 -79.3513870239257812
40.0338478088378906 -8.51698970794677734 -79.3209915161132812
39.5267066955566406 -7.64506006240844727 -79.5363540649414062
39.5409164428710938 -6.95716524124145508 -79.4757003784179688
40.2176628112792969 -6.55188512802124023 -78.5887603759765625
39.8288841247558594 -5.61515951156616211 -79.510894775390625
40.0522422790527344 -4.92166709899902344 -79.5779800415039062
40.4329452514648438 -4.27167367935180664 -79.08062744140625
40.2192573547363281 -3.4875795841217041 -79.664642333984375
40.929290771484375 -3.00341534614562988 -78.6799468994140625
40.1392745971679688 -2.08077311515808105 -79.5298843383789062
40.0824966430664062 -1.38669562339782715 -79.4674530029296875
40.3264427185058594 -0.732370376586914062 -78.912109375
40.2497787475585938 -0.0137014938518404961 -79.5573883056640625
40.2954635620117188 0.677721858024597168 -79.6035003662109375
40.7079620361328125 1.79185068607330322 -78.6131210327148438
40.6133308410644531 2.14526247978210449 -79.2124252319335938
40.6760711669921875 2.81871318817138672 -79.2479171752929688
40.8007431030273438 3.25396442413330078 -78.8938064575195312
40.1621894836425781 4.28375768661499023 -79.6080780029296875
39.8507614135742188 4.91489696502685547 -79.46771240234375
39.6904563903808594 5.5853114128112793 -79.4289321899414062
40.0857658386230469 6.44754886627197266 -79.071258544921875
