ply
format ascii 1.0
comment PCL generated
element vertex 613
property float x
property float y
property float z
element camera 1
property float view_px
property float view_py
property float view_pz
property float x_axisx
property float x_axisy
property float x_axisz
property float y_axisx
property float y_axisy
property float y_axisz
property float z_axisx
property float z_axisy
property float z_axisz
property float focal
property float scalex
property float scaley
property float centerx
property float centery
property int viewportx
property int viewporty
property float k1
property float k2
end_header
48.897514 5.151824 -73.943535
48.216297 9.3739052 -73.898277
48.055927 10.222627 -73.905624
47.76474 11.029119 -73.760887
47.45573 11.826327 -73.671371
48.96566 -2.5645397 -74.459679
49.113235 0.017829217 -74.564812
48.868134 3.4152286 -74.412224
48.262989 4.2458825 -74.975197
48.661789 5.1093259 -74.345108
48.519623 5.9535437 -74.296303
48.073589 6.7559996 -75.060616
47.955109 7.6045747 -75.037697
48.192703 8.5004845 -74.359512
47.63699 9.263464 -75.126366
47.890995 10.177876 -74.381378
47.264629 10.90499 -75.058655
47.006153 11.728925 -74.879028
46.469505 13.279335 -74.801765
46.220829 14.077646 -74.760422
45.601974 17.535919 -74.348839
45.396233 18.348261 -74.409912
45.160458 19.16312 -74.469788
48.511383 -5.1000977 -74.850403
48.777313 -4.2680621 -74.982368
48.939529 -3.4160142 -75.074471
49.008045 -2.5603468 -75.119621
49.014359 0.0024254334 -75.026497
48.934265 0.84334898 -74.93763
48.825195 1.6829691 -74.821587
47.608479 2.6362939 -75.927811
48.016697 4.2113934 -75.252251
47.350212 5.0211148 -75.748459
48.313881 5.9212875 -74.638603
48.15057 7.6221662 -74.732323
48.012127 8.4767065 -74.737953
47.402164 9.2123327 -75.381378
47.706303 10.13194 -74.735512
47.464394 10.942425 -74.716522
47.165535 11.751806 -74.610764
45.802574 13.047297 -75.710335
46.035419 14.052123 -75.142487
45.894554 14.861906 -75.221542
45.764477 15.678975 -75.374054
45.735249 16.508865 -75.449341
45.660786 17.546183 -74.953827
45.479603 18.364964 -75.030235
45.215935 19.180325 -75.081985
44.47448 20.737064 -75.052345
44.082874 21.503817 -75.03112
48.000031 -6.6600418 -76.298515
48.317287 -5.9315348 -75.425369
48.5443 -5.1033583 -75.553543
48.759895 -4.2671509 -75.651093
48.81356 -3.4217126 -75.617012
48.926609 -1.7159941 -75.629143
48.579044 1.6376972 -75.205383
47.293365 2.5464094 -76.170197
47.821384 3.3371289 -75.609032
47.721409 4.1704969 -75.570351
48.163914 5.0207725 -74.998047
46.89946 5.7686062 -76.004692
46.198769 6.4966788 -76.432083
47.891731 7.5768023 -75.127304
47.259106 8.3332834 -75.67617
47.635437 9.2611713 -75.13382
47.466873 10.069388 -75.098969
46.157017 10.648688 -76.150078
46.913158 11.683635 -75.033241
46.632675 12.518602 -74.957085
45.968163 13.205071 -75.495605
45.342751 13.797442 -76.114471
45.650806 14.832814 -75.690987
45.786247 15.864794 -75.268639
45.69656 16.700401 -75.473465
45.576096 17.531742 -75.595993
45.423111 18.353779 -75.68425
45.143509 19.158894 -75.723656
44.374115 20.69158 -75.663094
43.963871 21.43836 -75.634048
47.476749 -8.327776 -76.746658
47.57069 -7.4985795 -76.707077
47.745377 -6.678833 -76.76445
48.269695 -5.9255295 -76.167419
47.144863 -4.8721805 -77.125824
47.975571 -4.1642504 -76.688065
48.58287 -3.4433179 -76.113503
48.668144 -2.5877018 -76.090485
48.634815 -1.7552924 -76.028572
48.000305 -0.83696908 -76.479622
45.689358 0.13152231 -77.553596
47.670227 1.6203609 -76.088554
46.922474 2.4566154 -76.450493
47.446011 3.2681012 -75.907204
47.312653 4.1107674 -75.872025
45.916462 4.8357053 -76.69442
47.119308 5.7740922 -75.835625
45.692566 6.4211726 -76.634102
46.285324 7.32652 -76.297791
46.866608 8.2715883 -75.969444
44.660114 11.963992 -76.703262
45.077805 12.942213 -76.338066
44.95718 13.742712 -76.474876
45.334843 14.794935 -76.17907
45.180447 15.598658 -76.256866
45.127945 16.420424 -76.488899
45.346165 17.493343 -76.236488
45.213982 18.30858 -76.292076
44.916088 19.081312 -76.293503
43.569115 19.288942 -77.340965
44.15015 20.584629 -76.249306
43.700108 21.295086 -76.203751
41.608158 25.978762 -76.503288
41.253181 26.717146 -76.619171
46.466434 -12.408915 -77.30526
47.200336 -8.3376265 -77.054634
47.461559 -6.6835804 -77.047569
46.00771 -5.5603824 -77.70977
47.649929 -4.2009907 -76.910568
46.13868 0.01975405 -77.356262
46.01482 1.6133184 -77.215881
46.582657 2.3789053 -76.672783
45.248592 6.3716426 -76.768921
43.516991 11.658716 -77.221169
44.755363 12.898705 -76.586761
44.471272 17.975273 -77.105637
42.04063 21.37315 -77.409309
41.683083 22.114456 -77.409149
41.033745 23.568027 -77.600952
40.709583 24.28211 -77.793205
41.321308 25.910858 -76.922356
39.897564 27.605625 -78.101852
39.744293 28.829262 -77.304276
45.86932 -15.559836 -78.424103
46.039074 -14.004198 -78.029175
46.28112 -12.433056 -77.696404
45.716785 -11.356674 -78.014557
45.170254 -10.305803 -78.426643
45.44323 -8.7481909 -78.287483
46.896843 -8.3462582 -77.319221
47.036484 -7.5101805 -77.332451
47.111324 -6.6705656 -77.288033
44.006294 -2.3112607 -77.997345
44.985542 -0.78668272 -77.816223
45.743103 -0.044719875 -77.424316
40.666561 17.224651 -78.126686
42.871723 19.097708 -77.729019
41.380096 22.04291 -77.63588
40.951939 24.684223 -77.557976
41.032249 25.842434 -77.298836
40.315323 26.151867 -77.898117
40.025768 26.877338 -78.1782
45.705841 -18.31105 -78.939301
46.136669 -15.981146 -78.272194
45.628181 -14.836926 -78.479218
45.752148 -14.067211 -78.303619
44.589111 -12.619847 -78.987549
45.337078 -12.172371 -78.413101
44.868698 -10.343826 -78.589851
44.269386 -9.343215 -78.922928
44.358627 -8.5670052 -78.798767
44.869659 -0.039360974 -78.242569
44.934357 0.7759307 -78.403114
40.380074 17.191572 -78.294891
41.033154 21.993553 -77.8694
39.480263 23.696352 -78.594444
40.018394 26.105682 -78.170662
40.159996 27.314753 -77.92292
39.802734 28.050064 -78.001839
38.924065 28.229132 -78.664093
38.458916 28.914549 -78.705894
37.542095 30.314779 -78.897797
44.314518 -19.440126 -80.074234
45.336803 -18.375147 -79.151863
43.731361 -15.661242 -80.055611
45.191181 -15.66118 -79.015572
45.259922 -14.904297 -78.789635
44.189159 -12.683743 -79.258446
43.089931 -10.578148 -79.773079
45.232117 -10.612963 -78.32579
43.898392 -9.3602715 -79.105095
43.968239 -8.5968027 -78.958595
38.834229 20.654057 -79.25293
38.821323 26.250841 -79.038712
38.582943 28.170113 -78.884094
38.121101 29.932896 -78.588409
36.242554 29.112812 -80.093872
44.495617 -20.692053 -80.124718
44.71616 -19.93862 -79.885712
45.018932 -18.448883 -79.354668
43.246693 -16.446272 -80.440277
43.431084 -15.703732 -80.279831
43.847439 -12.73593 -79.514252
42.715683 -11.353128 -80.257256
43.560497 -9.3699608 -79.294815
36.402821 21.679434 -80.531128
36.651215 24.628962 -80.212196
36.438396 29.552336 -79.82309
35.421974 29.656721 -80.312714
43.383461 -22.984413 -80.871071
42.559654 -20.582785 -81.139923
44.186996 -20.751963 -80.277573
43.657665 -19.552032 -80.345665
41.805805 -17.515825 -81.238976
43.296021 -17.659315 -80.200356
42.918129 -16.488396 -80.614861
43.132298 -15.741617 -80.508522
37.41753 18.362516 -80.186134
35.991096 18.256514 -81.279839
36.113441 21.644981 -80.795181
36.313961 24.582388 -80.393822
35.947395 27.085014 -80.647659
35.053265 27.250999 -81.229721
35.635395 28.901834 -80.425575
35.683731 30.01972 -80.008904
33.53352 30.159117 -80.765472
41.784573 -25.95332 -81.709915
42.114464 -25.228315 -81.522224
41.471977 -22.759415 -81.939651
41.757103 -22.03606 -81.753181
43.384888 -22.295137 -80.80896
40.92783 -19.67915 -82.143738
41.492085 -17.570765 -81.433884
42.5984 -16.529293 -80.793892
42.799614 -15.785172 -80.680023
41.290619 -12.552684 -81.583534
35.71032 18.178972 -81.463936
34.941372 19.380375 -81.258095
35.823044 21.610407 -81.090721
34.925163 25.304512 -81.536377
34.348564 28.87792 -81.138885
33.854954 29.472134 -81.175957
33.304932 30.045376 -81.132294
32.364902 30.121155 -81.638527
41.23872 -26.660341 -82.222931
41.520199 -25.967712 -81.965828
40.75737 -21.578897 -82.23922
42.359566 -21.834433 -81.350037
41.9534 -20.622206 -81.527817
40.869648 -19.003952 -82.155952
41.150013 -17.633574 -81.597
39.576969 -15.031354 -82.509705
39.700779 -14.342791 -82.359154
40.926205 -12.595363 -81.727234
35.189095 11.433619 -82.010002
35.442699 18.105064 -81.645714
35.546921 21.577152 -81.403618
34.729401 25.261206 -81.917717
34.522511 28.146467 -81.269157
33.146542 28.836576 -81.892181
32.241943 28.914022 -82.411819
31.719526 29.480196 -82.409248
40.444538 -26.103725 -82.971741
41.263233 -25.999794 -82.243202
39.209301 -22.481186 -83.051094
41.111965 -22.10511 -82.084442
39.711849 -19.265739 -82.96125
39.061935 -15.069674 -82.470619
40.540497 -13.334026 -82.147652
35.145332 11.367422 -82.673286
34.018879 12.413012 -82.876518
34.542793 17.668283 -82.341431
32.020481 19.141209 -83.179329
32.380646 27.108385 -83.008347
31.970135 27.696838 -83.097847
31.932375 28.761539 -82.66349
31.458996 29.332544 -82.714912
30.897722 29.847628 -82.646072
38.583664 -25.606464 -84.088753
40.138615 -26.167049 -83.205536
40.974873 -26.033237 -82.501312
38.057198 -22.651886 -83.883194
38.296165 -21.990952 -83.685242
38.093487 -20.907526 -84.090355
40.120308 -21.64291 -82.572716
39.245201 -19.973463 -83.438293
39.43977 -19.298447 -83.213806
39.629192 -18.623669 -82.958824
32.685715 17.375319 -83.391632
31.746317 19.065311 -83.407967
32.817581 25.749994 -82.956085
31.634787 26.466835 -83.68103
31.252277 27.062147 -83.796814
31.67561 28.627441 -82.93924
31.200302 29.176649 -82.979477
30.668325 29.694059 -82.935791
29.526438 29.291981 -84.212151
38.684578 -30.149822 -84.138115
38.273884 -25.688051 -84.254417
38.508602 -25.067589 -83.93586
37.752407 -22.661024 -84.101608
38.019623 -22.002668 -83.918755
37.849983 -20.864725 -84.379326
39.201622 -19.330486 -83.538994
34.951977 -12.043181 -84.022041
35.112282 -11.426809 -83.97863
31.345325 15.926218 -84.267494
31.115601 16.495295 -84.355453
31.791039 18.435658 -83.690819
30.971359 18.565693 -84.219925
31.33461 26.317295 -83.954582
31.386103 27.389421 -83.608841
30.979332 27.963299 -83.71595
30.090462 28.02257 -84.224251
30.062546 29.089035 -83.839134
29.240091 29.135069 -84.459076
28.716066 29.627974 -84.430069
39.013317 -29.523834 -84.4431
37.959053 -25.756462 -84.365578
37.74984 -22.009714 -84.117378
37.640903 -20.843946 -84.689903
34.540424 -13.914992 -84.918633
30.919559 17.930672 -84.274429
30.73065 18.51403 -84.446152
29.878124 20.140921 -84.662895
29.867565 27.892559 -84.428047
29.383831 29.538572 -84.120735
36.180599 -26.994818 -85.718277
35.73423 -25.807743 -85.557381
35.573627 -24.639324 -85.852196
37.657627 -25.831532 -84.545464
37.396694 -20.872698 -84.943985
34.598724 -9.92206 -85.30484
31.445101 12.713492 -85.217957
27.918177 23.253151 -85.547012
28.720352 28.851763 -84.887711
28.215361 29.329605 -84.88295
27.318863 29.273447 -85.387016
36.275349 -30.112484 -86.423737
36.609467 -29.549597 -86.135742
37.566906 -29.629515 -85.587425
34.767967 -25.282362 -85.967049
35.816635 -25.290674 -85.615143
32.674561 -13.106298 -86.368813
33.196651 -11.404413 -86.188126
33.663857 -9.6512394 -86.036842
34.28252 -6.6824589 -85.847252
30.147421 13.422381 -85.992081
29.25625 15.532772 -86.199326
28.904108 18.045876 -86.101143
26.550928 27.348577 -86.216026
26.6049 28.524975 -85.97171
25.785868 28.347528 -86.523087
25.406525 28.85853 -86.626602
24.198229 33.193859 -86.03537
36.278278 -29.651648 -86.328102
31.225389 -13.816841 -87.058945
33.39777 -13.613893 -85.723045
31.907904 -11.627475 -86.706268
32.791035 -11.364912 -86.280884
30.719267 -9.8955669 -87.276695
30.877863 -9.3759317 -87.293312
33.350372 -9.6020613 -86.254379
32.791763 -8.7930841 -86.687767
32.332825 -6.854723 -86.893097
32.432693 -6.2921619 -86.870743
32.472454 -5.7329187 -86.719261
31.668173 -4.9952717 -86.921127
31.709587 -4.4479108 -86.825211
31.741314 -3.9033098 -86.729767
31.811453 -3.3463576 -86.746506
31.964241 -2.2315338 -86.890656
28.981987 13.517724 -86.745712
28.760874 14.027724 -86.781593
28.010841 15.519677 -86.821541
28.585707 17.92038 -86.354126
26.243412 28.419844 -86.213531
25.81859 28.906006 -86.34314
24.993774 28.696423 -86.87899
24.238222 29.609571 -87.25309
24.18829 31.974005 -86.930107
23.989162 33.14653 -86.669464
23.836927 33.641914 -87.060791
30.084988 -13.887836 -87.750679
29.777548 -12.497207 -87.873154
30.026505 -11.47137 -87.7089
29.626511 -10.088886 -88.006844
29.861366 -9.0462999 -87.889618
31.501429 -9.0832825 -87.050209
31.839544 -7.9903922 -87.089661
30.461098 -5.9103684 -87.532745
30.521427 -5.3840055 -87.445381
28.882153 -4.4726157 -87.973969
28.911928 -3.9996889 -87.926224
28.949036 -3.5114164 -87.870171
29.056166 -2.0182965 -87.78569
30.948214 -1.0821593 -87.372147
28.798653 4.0340104 -87.6222
27.442177 10.00647 -87.89106
28.023304 10.756133 -87.488708
27.836477 11.245449 -87.499649
26.876814 11.40888 -87.917679
26.689207 11.857716 -87.878891
27.753807 13.558381 -87.217873
26.090673 13.214803 -87.899193
26.567158 14.100122 -87.59903
27.724968 15.448182 -86.993729
26.787766 15.488951 -87.335983
25.685377 15.939512 -87.897034
25.484829 17.800966 -87.607353
25.192116 18.245861 -87.636795
25.532295 26.620066 -87.098892
25.136126 28.156731 -86.969215
24.707552 28.618414 -87.068893
24.072161 28.404968 -87.806702
23.647202 30.012693 -87.714973
23.590889 32.380707 -87.492233
23.239424 32.82795 -87.743965
32.451721 -28.210922 -88.217033
28.770224 -15.988479 -88.146759
28.901789 -14.521699 -88.717491
29.061497 -13.9894 -88.610847
29.725531 -13.982795 -87.955559
29.290344 -13.013636 -88.309242
29.530577 -11.986236 -88.032471
29.052729 -11.105162 -88.407013
28.731892 -9.2442875 -88.593452
28.841536 -8.7483482 -88.52858
30.195015 -5.9471874 -87.711678
28.587103 -4.551579 -88.121094
28.632429 -3.5700269 -87.919388
27.08688 -1.8645518 -88.562218
28.888676 -1.0078685 -87.998314
28.025333 -0.48728091 -88.315849
28.911289 0.50249487 -88.033188
28.147877 7.018095 -88.262566
27.536432 8.9331579 -88.123001
27.348351 9.4069052 -88.074326
26.974524 10.345611 -88.013618
27.542456 11.143547 -87.645294
26.672646 13.096179 -87.687775
25.745253 13.147396 -88.076401
24.887411 13.171641 -88.524086
25.357014 14.058267 -88.232597
24.224533 14.925426 -88.952133
24.541309 15.854607 -88.578461
23.45874 20.353731 -88.313736
23.606586 29.448217 -87.868683
23.249069 29.904831 -88.066025
23.223783 31.084377 -87.946198
23.473631 33.020828 -87.526199
23.089947 33.492584 -87.767242
22.491674 33.188408 -88.383232
22.09626 33.614296 -88.592133
27.942228 -14.522121 -89.634903
28.59004 -14.525458 -89.023087
28.743723 -14.03032 -88.902336
29.411097 -14.025817 -88.17627
29.552868 -13.471687 -88.052185
28.539141 -12.112588 -88.928917
28.444386 -9.2822638 -88.777
29.259317 -9.107379 -88.204575
29.41324 -8.5852032 -88.166245
28.136591 -7.0160627 -88.920624
26.620821 -5.1156435 -89.135803
27.459187 -4.8966832 -88.701843
25.926176 -3.5719521 -89.223587
28.376076 -3.6235223 -88.053177
25.953022 -2.7023549 -89.088913
26.797216 -1.8986306 -88.652512
25.926861 2.7128258 -89.051155
26.704208 8.1619816 -88.780739
25.549404 8.7988071 -88.959908
24.466618 9.3890238 -89.308929
24.803785 10.532901 -88.824905
23.858566 13.118839 -89.296844
24.251251 15.775857 -88.804039
23.563938 15.756388 -89.389023
23.016243 18.377914 -89.398262
22.666563 21.140108 -88.885506
22.542782 21.618532 -89.162567
22.001776 32.365829 -89.070076
27.934717 -21.075546 -89.586891
27.628801 -14.539412 -89.915375
27.781223 -14.059772 -89.792099
27.937376 -13.588152 -89.687187
28.575377 -13.55153 -89.064606
28.259787 -8.8367758 -88.904137
26.235733 -7.3670225 -90.055473
25.5807 -6.1788278 -90.182007
26.348497 -6.0609708 -89.672714
25.636433 -5.3337269 -89.95591
25.627823 -4.5086527 -89.639267
24.252337 -0.82457113 -89.951599
24.90369 -0.00079548388 -89.451836
24.85898 0.43440795 -89.390663
24.896395 0.87010205 -89.465149
24.904232 2.1789157 -89.603508
24.219477 2.4825482 -90.12471
25.643021 4.0668449 -89.537682
25.590767 4.5143762 -89.57959
26.235504 6.0627527 -89.467453
23.821857 8.2190266 -89.972206
24.388021 8.8774014 -89.521179
24.306501 13.088861 -88.920837
24.156054 15.279699 -88.955109
23.733522 16.129835 -89.163216
23.971546 17.053677 -88.751984
22.931791 17.872089 -89.692322
21.996389 20.479883 -89.669647
21.852697 20.933992 -89.912025
26.489891 -18.33354 -90.757652
27.265421 -14.563311 -90.242813
27.562946 -13.607894 -90.024467
26.232414 -10.019108 -90.517883
25.185308 -7.0973821 -90.688705
24.558962 -3.9404829 -90.184319
23.873367 -3.3176806 -90.533424
23.33917 0.02681144 -90.851982
23.838516 3.3396266 -90.491821
24.870583 6.6968222 -89.962646
22.950974 15.593207 -89.978058
22.089338 17.244177 -90.394531
22.059996 20.930332 -89.660774
19.499918 33.77504 -90.283302
26.033333 -18.802212 -91.248589
25.259579 -14.955167 -91.59037
26.772915 -15.030613 -90.622055
26.95125 -14.587712 -90.480316
23.906574 -8.8353815 -91.955124
25.691181 -6.7084618 -90.19722
24.961027 -5.5293779 -90.318497
23.040113 -1.1963786 -91.161377
23.49251 3.3429644 -90.677742
22.646244 4.8048306 -91.324104
22.497395 5.6123419 -91.394592
22.339033 8.1389027 -90.638367
20.52479 8.3042984 -91.28582
22.281643 12.977202 -90.695068
21.694525 15.848545 -90.831726
20.531137 20.510611 -91.089516
25.840836 -18.362276 -91.252914
24.77809 -13.135697 -91.829056
24.561728 -7.346992 -91.102173
21.84166 -4.8938489 -92.304817
22.564484 -4.0168343 -91.637215
22.027586 -3.030705 -92.060524
21.44705 -2.5312672 -92.470596
22.71986 -1.2232649 -91.423241
22.74947 -0.021839773 -91.417488
22.725662 1.5930964 -91.445267
18.887264 13.498164 -92.302925
18.87969 15.12289 -92.17601
23.393055 -19.244127 -92.932236
23.592749 -18.840595 -92.766281
22.890818 -16.826874 -93.077888
23.338446 -13.881502 -92.787453
23.79681 -9.7997255 -91.945602
22.157921 -6.6868525 -92.680275
22.170435 -5.596076 -92.215446
21.655344 -3.4607289 -92.326447
21.730976 -2.6940701 -92.27652
20.507629 0.38601077 -93.182968
20.065784 3.2219577 -92.994148
20.809269 3.6858463 -92.627556
21.289309 4.9091139 -92.163086
20.736681 6.7385259 -92.057442
19.599314 7.5234451 -92.417038
18.747307 7.5637083 -92.851616
18.596935 15.098936 -92.323059
18.394644 15.427742 -92.447487
17.331366 15.680239 -93.218689
22.089531 -20.455507 -93.34597
22.862919 -19.680782 -93.411171
23.25519 -18.886724 -93.03289
23.436945 -18.482847 -92.851898
20.604521 -10.719923 -93.712204
21.560993 -10.849107 -93.440681
21.635551 -7.8606663 -93.151123
20.574707 -3.6609867 -92.963234
21.356146 -2.7241061 -92.464973
21.503798 -0.79939145 -92.453651
20.140583 0.7090475 -93.33255
19.035467 2.3702958 -93.489403
20.429197 3.935694 -92.765594
16.827265 9.2308273 -93.487022
18.35371 13.522987 -92.569824
18.16165 13.857208 -92.658585
16.83745 12.939462 -93.524689
18.109787 15.434925 -92.597588
16.827286 14.430787 -93.423874
17.211954 15.388656 -93.260834
23.240831 -19.928679 -93.077644
22.946739 -18.869911 -93.248978
21.68795 -14.512121 -93.980896
22.798475 -13.983785 -93.129326
21.669861 -9.8190861 -93.253654
20.448368 -8.2339935 -93.876221
19.836878 0.33339551 -93.557938
19.649759 2.0199745 -93.324074
17.188152 5.2519398 -93.725899
16.552948 9.2092361 -93.682724
16.459923 12.925661 -93.655479
15.451608 14.320926 -93.934723
16.982494 16.970427 -93.80896
22.436342 -19.67457 -93.791847
22.102861 -16.863277 -93.769737
21.787003 -15.876212 -94.026672
22.02194 -15.503884 -93.97583
19.052139 -12.869015 -94.04847
21.67675 -14.195069 -93.906494
21.928083 -13.798469 -93.895882
19.470053 -7.8669043 -94.110092
21.247921 -7.9547367 -93.402283
19.612823 1.7068311 -93.398308
16.917412 5.8273787 -93.843391
15.984674 5.8161263 -94.129707
15.622357 6.9388862 -94.298813
16.821489 8.2979975 -93.626823
16.472258 12.627186 -93.653542
16.723011 15.394148 -93.538795
15.743294 15.283409 -93.983208
16.220432 16.263935 -94.043808
0 0 0 1 0 0 0 1 0 0 0 1 0 0 0 0 0 613 1 0 0
