ply
format ascii 1.0
comment PCL generated
element vertex 1546
property float x
property float y
property float z
element camera 0
property float view_px
property float view_py
property float view_pz
property float x_axisx
property float x_axisy
property float x_axisz
property float y_axisx
property float y_axisy
property float y_axisz
property float z_axisx
property float z_axisy
property float z_axisz
property float focal
property float scalex
property float scaley
property float centerx
property float centery
property int viewportx
property int viewporty
property float k1
property float k2
end_header
45.432018 -18.355703 -66.353401
44.763729 -19.930094 -67.041496
45.104733 -19.145838 -67.041496
45.432018 -18.355703 -67.041397
44.409088 -20.708281 -67.713402
44.763729 -19.930094 -67.713898
45.104733 -19.145838 -67.714401
45.432018 -18.355703 -67.714897
46.858932 -14.326215 -65.679703
45.745445 -17.560022 -66.353897
46.601772 -15.14182 -66.355103
46.858932 -14.326215 -66.3554
45.745445 -17.560022 -67.041397
46.044937 -16.758993 -67.041298
46.330402 -15.95286 -67.041298
46.601772 -15.14182 -67.041199
46.858932 -14.326215 -67.041199
44.811863 -17.201654 -67.715401
46.044937 -16.758993 -67.715797
46.330402 -15.95286 -67.716202
46.601772 -15.14182 -67.716599
46.858932 -14.326215 -67.717003
40.104046 -8.5243988 -75.009697
44.016636 -9.3560476 -80.655197
44.173225 -8.5863953 -80.655098
44.016636 -9.3560476 -81.332497
44.173225 -8.5863953 -81.332802
44.016636 -9.3560476 -82.016502
44.173225 -8.5863953 -82.016403
45.902626 -14.033843 -80.655502
46.140556 -13.230608 -80.655502
46.364445 -12.423296 -80.655403
45.603901 -11.370325 -80.655296
44.821022 -10.347757 -80.655296
46.364445 -12.423296 -81.331596
45.795391 -10.572708 -81.332199
46.364445 -12.423296 -82.0168
45.603901 -11.370325 -82.016701
44.821022 -10.347757 -82.016602
45.902626 -14.033843 -82.692497
45.398518 -12.164477 -82.693199
45.603901 -11.370325 -82.693604
45.795391 -10.572708 -82.693901
46.364445 -12.423296 -83.378403
45.603901 -11.370325 -83.378304
44.821022 -10.347757 -83.378304
47.270771 -8.3351164 -80.654999
47.532871 -6.6802926 -80.6548
48.255581 -8.5087643 -81.333
44.445972 -7.0395675 -81.333199
47.532871 -6.6802926 -81.333504
48.255581 -8.5087643 -82.016403
44.445972 -7.0395675 -82.016296
44.562065 -6.2627745 -82.016197
44.994785 -9.5639601 -82.694199
45.154854 -8.7772036 -82.694397
45.301155 -7.9878197 -82.694702
44.445972 -7.0395675 -82.694901
47.532871 -6.6802926 -82.695099
44.994785 -9.5639601 -83.378197
45.154854 -8.7772036 -83.378098
48.255581 -8.5087643 -83.377998
45.552334 -6.401947 -83.3778
41.534817 -11.129203 -72.3871
41.722717 -10.402637 -72.3871
41.846489 -13.596737 -73.062103
41.846489 -13.596737 -73.748299
41.846489 -13.596737 -74.423798
44.218033 -12.679333 -74.4245
42.693012 -10.644559 -74.425201
44.218033 -12.679333 -75.009903
42.693012 -10.644559 -75.009804
44.218033 -12.679333 -75.686203
43.663307 -10.886481 -68.402496
43.466667 -11.64684 -71.025299
44.218033 -12.679333 -71.701302
44.173225 -8.5863953 -72.387001
43.458286 -6.8831325 -72.386902
44.016636 -9.3560476 -73.064003
44.016636 -9.3560476 -73.747803
44.173225 -8.5863953 -73.747704
44.173225 -8.5863953 -74.426003
44.173225 -8.5863953 -75.009598
43.458286 -6.8831325 -75.009399
43.846649 -10.122807 -75.687103
44.016636 -9.3560476 -75.687302
43.331539 -7.640523 -69.080399
42.470596 -6.7266974 -71.024803
44.173225 -8.5863953 -71.702904
45.902626 -14.033843 -72.387199
46.140556 -13.230608 -72.387199
44.821022 -10.347757 -72.3871
45.902626 -14.033843 -73.0625
46.140556 -13.230608 -73.062798
46.364445 -12.423296 -73.063103
45.603901 -11.370325 -73.0634
44.821022 -10.347757 -73.063698
45.902626 -14.033843 -73.748199
46.140556 -13.230608 -73.748199
46.364445 -12.423296 -73.7481
45.603901 -11.370325 -73.748001
44.821022 -10.347757 -73.747902
45.902626 -14.033843 -74.424202
46.364445 -12.423296 -74.424896
44.821022 -10.347757 -74.4254
45.902626 -14.033843 -75.010002
45.398518 -12.164477 -75.009903
44.821022 -10.347757 -75.009697
45.902626 -14.033843 -75.685799
46.364445 -12.423296 -75.686501
45.603901 -11.370325 -75.686798
45.179295 -12.95497 -68.402603
46.364445 -12.423296 -68.402603
44.821022 -10.347757 -68.402397
45.179295 -12.95497 -69.078796
46.364445 -12.423296 -69.079102
45.603901 -11.370325 -69.079399
44.821022 -10.347757 -69.079697
45.179295 -12.95497 -69.763901
46.364445 -12.423296 -69.763802
45.603901 -11.370325 -69.763702
45.795391 -10.572708 -69.763603
45.179295 -12.95497 -70.340302
46.364445 -12.423296 -70.340698
45.603901 -11.370325 -70.341003
44.821022 -10.347757 -70.341202
45.902626 -14.033843 -71.025497
45.179295 -12.95497 -71.025398
45.603901 -11.370325 -71.0252
44.821022 -10.347757 -71.0252
45.902626 -14.033843 -71.700897
45.398518 -12.164477 -71.701599
45.603901 -11.370325 -71.702003
44.821022 -10.347757 -71.702301
44.994785 -9.5639601 -72.387001
47.270771 -8.3351164 -72.386902
47.532871 -6.6802926 -72.386803
45.154854 -8.7772036 -73.064301
47.270771 -8.3351164 -73.064499
47.409039 -7.5088716 -73.064697
47.532871 -6.6802926 -73.064903
47.270771 -8.3351164 -73.747597
47.409039 -7.5088716 -73.747498
47.532871 -6.6802926 -73.747398
44.994785 -9.5639601 -74.425697
47.270771 -8.3351164 -74.4263
47.409039 -7.5088716 -74.426498
47.532871 -6.6802926 -74.426697
47.270771 -8.3351164 -75.009499
47.532871 -6.6802926 -75.0093
45.154854 -8.7772036 -75.687599
47.270771 -8.3351164 -75.687798
47.409039 -7.5088716 -75.688004
47.532871 -6.6802926 -75.688301
44.994785 -9.5639601 -68.402298
45.154854 -8.7772036 -68.402298
48.255581 -8.5087643 -68.402199
45.433662 -7.196002 -68.4021
44.994785 -9.5639601 -69.079903
46.136478 -8.9680128 -69.0802
47.532871 -6.6802926 -69.080803
44.994785 -9.5639601 -69.763496
45.154854 -8.7772036 -69.763397
47.270771 -8.3351164 -69.763397
44.445972 -7.0395675 -69.763199
47.532871 -6.6802926 -69.7631
44.994785 -9.5639601 -70.341499
45.154854 -8.7772036 -70.341797
47.270771 -8.3351164 -70.342003
44.445972 -7.0395675 -70.342201
44.994785 -9.5639601 -71.025101
47.118107 -9.1588211 -71.025002
45.301155 -7.9878197 -71.024902
47.532871 -6.6802926 -71.024696
44.994785 -9.5639601 -71.702599
45.301155 -7.9878197 -71.703102
47.409039 -7.5088716 -71.7033
43.939701 -2.302783 -80.654297
43.758961 -4.5992632 -82.695503
43.973198 -1.5355785 -83.376999
46.742527 -4.9128494 -80.654602
47.817345 -4.1834774 -80.654503
47.883076 -3.3483121 -80.654404
46.742527 -4.9128494 -81.3339
47.817345 -4.1834774 -81.334
46.742527 -4.9128494 -82.0159
47.817345 -4.1834774 -82.0158
46.64967 -5.7278571 -82.695297
47.817345 -4.1834774 -82.695702
47.883076 -3.3483121 -82.6959
46.935589 -2.4597909 -82.696098
46.742527 -4.9128494 -83.377602
47.817345 -4.1834774 -83.377403
44.993145 -0.78535861 -80.653999
46 8.0116361e-14 -80.653801
44.993145 0.78535861 -80.653603
47.97076 1.6751765 -80.653503
44.993145 -0.78535861 -81.334702
44.993145 0.78535861 -81.334999
45.992992 0.80281103 -82.0149
47.97076 1.6751765 -82.014702
44.972588 -1.5704781 -82.696198
44.993145 -0.78535861 -82.696404
47.97076 1.6751765 -82.6968
44.993145 -0.78535861 -83.3769
46 8.0116361e-14 -83.376701
45.992992 0.80281103 -83.376602
43.939701 -2.302783 -75.689102
43.758961 -4.5992632 -69.762901
46.742527 -4.9128494 -72.386597
47.817345 -4.1834774 -72.386597
46.742527 -4.9128494 -73.065399
47.817345 -4.1834774 -73.065598
47.737049 -5.0173779 -73.7472
47.817345 -4.1834774 -73.747002
46.935589 -2.4597909 -73.746803
47.737049 -5.0173779 -74.427002
47.817345 -4.1834774 -74.4272
47.883076 -3.3483121 -74.427299
47.642216 -5.8497262 -75.009201
47.817345 -4.1834774 -68.401604
45.936958 -2.407455 -68.401398
47.883076 -3.3483121 -69.081596
45.936958 -2.407455 -69.081703
47.817345 -4.1834774 -69.762703
44.938328 -2.355119 -69.762497
47.642216 -5.8497262 -70.342598
47.737049 -5.0173779 -70.342796
47.817345 -4.1834774 -70.342903
44.938328 -2.355119 -70.3433
47.817345 -4.1834774 -71.024399
44.938328 -2.355119 -71.024101
47.642216 -5.8497262 -71.703796
47.817345 -4.1834774 -71.704201
44.938328 -2.355119 -71.704498
47.97076 -1.6751765 -72.386299
44.993145 -0.78535861 -72.3862
46 8.0116361e-14 -72.386101
45.992992 0.80281103 -72.386002
47.97076 -1.6751765 -73.066002
44.993145 -0.78535861 -73.0662
47.992691 0.83771586 -73.066498
47.97076 1.6751765 -73.066597
44.993145 -0.78535861 -73.746399
46 8.0116361e-14 -73.7463
45.992992 0.80281103 -73.746101
47.97076 1.6751765 -73.745903
44.972588 -1.5704781 -74.427597
44.993145 -0.78535861 -74.427803
47.992691 0.83771586 -74.428101
45.971977 1.6053776 -74.4282
44.972588 -1.5704781 -75.008698
44.993145 -0.78535861 -75.008598
44.993145 -0.78535861 -75.6894
46 8.3308299e-14 -75.689499
44.993145 0.78535861 -75.689598
45.992992 0.80281103 -68.400803
45.992992 -0.80281103 -69.082001
46 8.3308299e-14 -69.082199
47.992691 0.83771586 -69.082298
47.97076 -1.6751765 -69.762299
48 8.3599679e-14 -69.761902
47.992691 0.83771586 -69.761803
47.97076 1.6751765 -69.761597
47.97076 -1.6751765 -70.343399
44.993145 -0.78535861 -70.343498
48 8.6930402e-14 -70.343697
47.992691 0.83771586 -70.343697
47.97076 1.6751765 -70.343903
48 8.3599679e-14 -71.023697
47.992691 0.83771586 -71.023499
47.97076 1.6751765 -71.0233
47.97076 -1.6751765 -71.704697
44.993145 -0.78535861 -71.704803
48 8.6930402e-14 -71.705002
44.016636 -9.3560476 -67.718498
47.101818 -13.506246 -65
46.364445 -12.423296 -65
46.574196 -11.612247 -65
46.76976 -10.79766 -65
47.101818 -13.506246 -65.679703
46.364445 -12.423296 -65.679604
46.574196 -11.612247 -65.679497
46.76976 -10.79766 -65.679398
47.101818 -13.506246 -66.355797
45.398518 -12.164477 -66.356102
46.574196 -11.612247 -66.3564
45.795391 -10.572708 -66.356598
47.101818 -13.506246 -67.0411
46.364445 -12.423296 -67.041
46.574196 -11.612247 -67.041
45.795391 -10.572708 -67.040901
45.179295 -12.95497 -67.7173
46.364445 -12.423296 -67.717598
45.603901 -11.370325 -67.717903
45.795391 -10.572708 -67.718201
46.95108 -9.979784 -65
48.099735 -9.3496304 -65
48.255581 -8.5087643 -65
45.972931 -9.7718716 -65.679398
48.099735 -9.3496304 -65.679298
48.255581 -8.5087643 -65.679199
44.994785 -9.5639601 -66.356903
45.154854 -8.7772036 -66.357101
48.255581 -8.5087643 -66.357399
44.994785 -9.5639601 -67.040802
45.154854 -8.7772036 -67.040703
48.255581 -8.5087643 -67.040604
45.433662 -7.196002 -67.040604
47.532871 -6.6802926 -67.040497
45.154854 -8.7772036 -67.718697
48.255581 -8.5087643 -67.718903
44.445972 -7.0395675 -67.719101
47.532871 -6.6802926 -67.719398
47.737049 -5.0173779 -65
47.737049 -5.0173779 -65.678802
47.883076 -3.3483121 -66.358597
44.938328 -2.355119 -67.039902
47.817345 -4.1834774 -67.719902
45.936958 -2.407455 -67.720299
44.972588 -1.5704781 -67.039703
45.992992 -0.80281103 -67.039497
47 8.1858023e-14 -67.039398
45.992992 -0.80281103 -67.720497
48.396725 -7.6653066 -80.6549
48.396725 -7.6653066 -83.377899
48.523136 -6.8194656 -68.402
48.396725 -7.6653066 -69.080597
48.523136 -6.8194656 -70.3424
48.523136 -6.8194656 -71.703598
48.634762 -5.9715953 -80.654701
48.634762 -5.9715953 -81.333702
48.880638 -3.4180686 -81.334198
48.932846 -2.5644629 -81.334396
48.634762 -5.9715953 -82.015999
48.880638 -3.4180686 -82.015701
48.932846 -2.5644629 -82.015503
48.634762 -5.9715953 -83.377701
48.880638 -3.4180686 -83.377296
48.932846 -2.5644629 -83.377197
48.97015 -1.7100761 -80.654099
48.97015 -1.7100761 -81.334602
49 8.8741453e-14 -81.3349
48.97015 1.7100761 -81.335098
48.97015 -1.7100761 -82.015404
48.992538 -0.85516828 -82.015198
49 8.5341341e-14 -82.014999
49 8.8741453e-14 -82.696503
48.992538 0.85516828 -82.696701
48.97015 1.7100761 -83.376404
48.634762 -5.9715953 -68.401901
48.731571 -5.1219068 -68.401703
48.880638 -3.4180686 -68.401497
48.634762 -5.9715953 -69.081001
48.731571 -5.1219068 -69.0812
48.813541 -4.2706332 -69.081398
48.634762 -5.9715953 -69.763
48.880638 -3.4180686 -69.762604
48.880638 -3.4180686 -70.343102
48.634762 -5.9715953 -71.024597
48.731571 -5.1219068 -71.024498
48.880638 -3.4180686 -71.0243
48.731571 -5.1219068 -71.704002
48.880638 -3.4180686 -71.704399
48.97015 -1.7100761 -68.401199
48.992538 -0.85516828 -68.4011
49 8.5341341e-14 -68.400902
48.97015 1.7100761 -68.400597
48.97015 -1.7100761 -69.081902
48.97015 1.7100761 -69.082397
48.992538 -0.85516828 -69.7621
48.97015 -1.7100761 -71.024002
48.992538 -0.85516828 -71.023804
48.992538 0.85516828 -71.705101
48.97015 1.7100761 -71.7052
48.396725 -7.6653066 -65
48.523136 -6.8194656 -65
48.396725 -7.6653066 -65.6791
48.523136 -6.8194656 -65.679001
48.396725 -7.6653066 -66.357597
48.523136 -6.8194656 -66.357803
48.634762 -5.9715953 -65
48.813541 -4.2706332 -65
48.880638 -3.4180686 -65
48.634762 -5.9715953 -65.678902
48.813541 -4.2706332 -65.678802
48.880638 -3.4180686 -65.678596
48.932846 -2.5644629 -65.678497
48.634762 -5.9715953 -66.358101
48.731571 -5.1219068 -66.3582
48.813541 -4.2706332 -66.358398
48.932846 -2.5644629 -66.358704
48.634762 -5.9715953 -67.040398
48.731571 -5.1219068 -67.040199
48.813541 -4.2706332 -67.0401
48.880638 -3.4180686 -67.040001
48.634762 -5.9715953 -67.719498
48.731571 -5.1219068 -67.719704
48.880638 -3.4180686 -67.7201
48.97015 1.7100761 -65.677803
48.97015 -1.7100761 -66.358902
48.992538 -0.85516828 -66.359001
49 8.8741453e-14 -66.3591
48.992538 0.85516828 -66.359299
48.97015 1.7100761 -66.359398
48.992538 0.85516828 -67.0392
48.97015 1.7100761 -67.039001
48.97015 -1.7100761 -67.720398
49 8.8741453e-14 -67.720703
48.992538 0.85516828 -67.720802
48.97015 1.7100761 -67.720901
33.870621 2.9632964 -93.105797
32.754025 4.0216866 -88.242996
32.498657 5.7303925 -88.243301
32.874424 2.8761408 -88.9217
32.498657 5.7303925 -88.920502
33.917179 2.371721 -89.6045
32.678848 4.5927014 -89.604897
32.874424 2.8761408 -90.3825
32.754025 4.0216866 -90.382004
32.498657 5.7303925 -90.381203
32.874424 2.8761408 -91.744904
34.952034 1.8317592 -85.999199
34.866814 3.0504522 -85.998802
32.919613 2.3019645 -86.780998
33.746571 4.1435561 -86.781303
32.678848 4.5927014 -86.781403
33.581402 5.3187842 -86.781601
32.754025 4.0216866 -87.459602
32.498657 5.7303925 -87.458702
33.375324 6.4874988 -88.243301
34.038662 11.720469 -92.428398
32.669064 17.370441 -93.790199
34.038662 11.720469 -87.455299
32.627087 15.214247 -88.913597
36.252316 16.904718 -84.059799
35.628273 15.862728 -84.630699
35.346008 16.482101 -84.630203
33.858246 17.251642 -85.321198
34.749252 17.705633 -85.989304
32.669064 17.370441 -86.7827
39.581703 16.801449 -88.244003
39.581703 16.801449 -84.631302
39.581703 16.801449 -86.782501
43.672031 5.3622489 -92.427696
47.934219 2.5121269 -88.922096
46.885509 3.2785556 -88.921898
47.934219 2.5121269 -89.604401
46.935589 2.4597909 -84.058403
46.885509 3.2785556 -84.058502
47.817345 4.1834774 -84.058601
46.885509 3.2785556 -84.637802
47.817345 4.1834774 -84.637604
47.934219 2.5121269 -85.319801
47.883076 3.3483121 -85.319901
47.817345 4.1834774 -85.32
47.883076 3.3483121 -85.9991
44.753483 4.7037916 -85.998596
46.742527 4.9128494 -86.781197
47.934219 2.5121269 -87.460503
46.885509 3.2785556 -87.460297
47.737049 5.0173779 -87.4599
47.532871 6.6802926 -88.243103
45.552334 6.401947 -88.920998
47.642216 5.8497262 -89.604797
46.542603 6.5411201 -84.0588
46.421349 7.352437 -84.058899
48.255581 8.5087643 -84.058998
47.118107 9.1588211 -84.059097
45.972931 9.7718716 -84.059097
47.642216 5.8497262 -84.637199
48.255581 8.5087643 -84.636398
46.136478 8.9680128 -84.636101
47.642216 5.8497262 -85.320198
46.542603 6.5411201 -85.320297
47.270771 8.3351164 -85.320503
48.099735 9.3496304 -85.320503
46.542603 6.5411201 -85.9981
46.421349 7.352437 -85.997902
48.255581 8.5087643 -85.997597
47.118107 9.1588211 -85.997299
46.285965 8.1614676 -86.7817
47.409039 7.5088716 -87.459099
44.16555 16.074953 -84.632896
43.577648 17.606491 -85.992699
42.944702 16.484919 -86.782402
43.577648 17.606491 -86.782501
47.744129 11.022611 -88.2435
46.140556 13.230608 -88.243698
47.101818 13.506246 -88.918503
46.76976 10.79766 -84.059196
47.544491 11.854168 -84.059196
44.432594 11.905659 -84.059303
45.179295 12.95497 -84.059402
46.95108 9.979784 -84.635803
47.744129 11.022611 -84.635498
47.544491 11.854168 -84.635101
47.330372 12.682115 -84.634804
45.179295 12.95497 -84.634499
46.95108 9.979784 -85.320602
46.76976 10.79766 -85.320602
46.574196 11.612247 -85.320702
45.398518 12.164477 -85.320801
46.140556 13.230608 -85.320801
47.929226 10.187696 -85.997002
45.795391 10.572708 -85.996597
46.574196 11.612247 -85.9963
44.432594 11.905659 -85.995903
47.101818 13.506246 -85.995499
47.929226 10.187696 -86.781799
47.744129 11.022611 -86.781898
46.574196 11.612247 -86.781998
47.330372 12.682115 -86.782097
45.179295 12.95497 -86.782097
46.95108 9.979784 -87.458099
47.744129 11.022611 -87.457802
47.544491 11.854168 -87.457497
47.330372 12.682115 -87.4571
47.101818 13.506246 -87.456596
46.858932 14.326215 -88.243698
46.601772 15.14182 -88.917603
46.858932 14.326215 -89.6054
45.902626 14.033843 -84.059402
46.601772 15.14182 -84.059502
46.330402 15.95286 -84.059502
46.044937 16.758993 -84.059601
45.745445 17.560022 -84.059601
45.902626 14.033843 -84.634102
46.601772 15.14182 -84.633698
46.330402 15.95286 -84.633301
45.745445 17.560022 -84.632301
45.902626 14.033843 -85.3209
45.650715 14.832804 -85.3209
46.330402 15.95286 -85.320999
46.044937 16.758993 -85.320999
44.811863 17.201654 -85.320999
45.902626 14.033843 -85.995201
46.601772 15.14182 -85.994797
46.330402 15.95286 -85.994301
46.044937 16.758993 -85.993797
45.745445 17.560022 -85.993202
46.858932 14.326215 -86.782204
46.601772 15.14182 -86.782303
45.384884 15.627292 -86.782303
46.044937 16.758993 -86.782402
45.902626 14.033843 -87.4562
32.572357 19.571445 -88.244202
35.14386 21.116558 -89.605797
35.640259 18.159624 -84.628899
35.859417 19.877176 -84.627403
35.859417 19.877176 -85.321297
35.14386 21.116558 -85.321297
34.769981 21.726677 -85.321404
35.859417 19.877176 -85.987701
35.14386 21.116558 -85.985802
35.14386 21.116558 -86.783096
35.14386 21.116558 -87.446999
36.901497 23.96413 -85.321404
36.901497 23.96413 -85.983803
33.884464 26.47344 -94.110497
37.681 26.384506 -93.790298
33.096455 25.857779 -88.2444
32.452511 28.210539 -90.352097
33.096455 25.857779 -91.724098
33.096455 25.857779 -84.059998
34.971581 28.319403 -84.060097
33.096455 25.857779 -84.618599
34.971581 28.319403 -84.6175
32.452511 28.210539 -84.614098
33.096455 25.857779 -85.321503
35.748726 28.948723 -85.321503
33.096455 25.857779 -85.9776
34.971581 28.319403 -85.975998
35.596737 25.862568 -86.783096
33.096455 25.857779 -86.783096
33.096455 25.857779 -87.438499
32.452511 28.210539 -87.433701
39.319305 27.53166 -88.904198
39.133133 29.488943 -88.901703
40.25618 26.142687 -89.605904
39.641819 28.801497 -90.361
40.25618 26.142687 -84.059998
40.138458 28.105236 -84.059998
38.832802 28.213711 -84.059998
38.334499 28.887129 -84.059998
40.25618 26.142687 -84.624199
38.500153 26.958084 -84.6222
39.641819 28.801497 -84.621002
36.737228 27.683498 -84.620003
40.138458 28.105236 -85.321404
39.641819 28.801497 -85.321404
39.133133 29.488943 -85.321404
37.681 26.384506 -85.981499
38.832802 28.213711 -85.980202
38.334499 28.887129 -85.978996
40.138458 28.105236 -86.783096
39.133133 29.488943 -86.783096
42.936638 19.116621 -84.0597
44.040901 21.480204 -84.059799
44.040901 21.480204 -84.629601
42.936638 19.116621 -85.321198
43.502781 20.285664 -85.321198
44.040901 21.480204 -85.321198
43.502781 20.285664 -85.990799
44.040901 21.480204 -85.989998
42.856377 23.755651 -84.059898
41.498543 22.065155 -84.628197
41.498543 22.065155 -85.321297
42.435238 24.50001 -85.321297
42.435238 24.50001 -86.783096
45.432018 18.355703 -84.0597
45.104733 19.145838 -84.0597
45.432018 18.355703 -84.631798
45.104733 19.145838 -85.321098
45.104733 19.145838 -85.991898
41.094849 26.687326 -90.365196
40.622841 27.400454 -91.729401
41.554367 25.966028 -84.059898
40.622841 27.400454 -84.059998
41.554367 25.966028 -84.625198
40.622841 27.400454 -85.321404
40.622841 27.400454 -85.982803
41.094849 26.687326 -86.783096
40.622841 27.400454 -86.783096
40.622841 27.400454 -87.443802
48.880638 3.4180686 -88.242599
48.813541 4.2706332 -88.242798
48.731571 5.1219068 -88.242897
48.932846 2.5644629 -90.383003
48.731571 5.1219068 -84.058701
48.932846 2.5644629 -84.638
48.731571 5.1219068 -84.637398
48.731571 5.1219068 -85.320099
48.932846 2.5644629 -86.7808
48.813541 4.2706332 -86.781097
48.813541 4.2706332 -87.460098
48.396725 7.6653066 -88.243202
48.396725 7.6653066 -88.920799
48.634762 5.9715953 -84.0588
48.523136 6.8194656 -84.636902
48.396725 7.6653066 -84.636703
48.396725 7.6653066 -85.320396
48.634762 5.9715953 -85.998398
46.885509 3.2785556 -80.653099
47.737049 5.0173779 -80.652702
46.935589 2.4597909 -81.335297
46.885509 3.2785556 -81.335403
47.817345 4.1834774 -81.335503
44.753483 4.7037916 -81.335602
46.64967 5.7278571 -81.335701
47.737049 5.0173779 -82.697197
46.64967 5.7278571 -82.697304
47.883076 3.3483121 -83.376099
47.642216 5.8497262 -80.652397
45.552334 6.401947 -80.652199
46.421349 7.352437 -80.651901
47.270771 8.3351164 -80.651604
46.136478 8.9680128 -80.651398
45.972931 9.7718716 -80.651001
46.542603 6.5411201 -81.3358
46.421349 7.352437 -81.335899
46.285965 8.1614676 -81.335899
48.099735 9.3496304 -81.335999
46.542603 6.5411201 -82.013397
47.409039 7.5088716 -82.013199
46.285965 8.1614676 -82.012901
48.099735 9.3496304 -82.012604
45.972931 9.7718716 -82.012199
46.542603 6.5411201 -82.697403
46.421349 7.352437 -82.697403
47.270771 8.3351164 -82.697502
48.099735 9.3496304 -82.697601
44.994785 9.5639601 -82.697701
46.542603 6.5411201 -83.375099
47.409039 7.5088716 -83.374702
48.255581 8.5087643 -83.374496
47.118107 9.1588211 -83.374199
45.972931 9.7718716 -83.373901
47.934219 2.5121269 -68.400398
46.742527 4.9128494 -68.399902
47.934219 2.5121269 -69.082497
46.885509 3.2785556 -69.082603
46.742527 4.9128494 -69.082802
47.934219 2.5121269 -69.761398
47.817345 4.1834774 -69.760902
45.748005 4.8083205 -69.760696
47.883076 3.3483121 -70.344101
46.742527 4.9128494 -70.344299
46.64967 5.7278571 -70.344398
46.742527 4.9128494 -71.0224
47.883076 3.3483121 -71.705498
45.748005 4.8083205 -71.705704
48.255581 8.5087643 -68.398804
47.118107 9.1588211 -68.398499
45.972931 9.7718716 -68.398201
47.642216 5.8497262 -69.082901
47.409039 7.5088716 -69.083099
48.255581 8.5087643 -69.083099
48.099735 9.3496304 -69.083199
45.972931 9.7718716 -69.083298
46.285965 8.1614676 -69.759598
47.118107 9.1588211 -69.759201
45.972931 9.7718716 -69.758904
48.255581 8.5087643 -70.344597
47.118107 9.1588211 -70.344597
45.972931 9.7718716 -70.344704
46.285965 8.1614676 -71.0215
47.118107 9.1588211 -71.021103
47.642216 5.8497262 -71.705803
48.255581 8.5087643 -71.706001
47.118107 9.1588211 -71.7061
47.744129 11.022611 -80.650703
47.544491 11.854168 -80.650299
47.330372 12.682115 -80.649902
45.179295 12.95497 -80.649498
46.95108 9.979784 -81.336098
45.795391 10.572708 -81.336197
47.544491 11.854168 -81.336197
47.330372 12.682115 -81.336304
45.179295 12.95497 -81.336304
47.744129 11.022611 -82.011902
47.544491 11.854168 -82.011497
46.364445 12.423296 -82.011101
45.179295 12.95497 -82.010803
46.76976 10.79766 -82.697701
47.544491 11.854168 -82.6978
46.364445 12.423296 -82.6978
45.179295 12.95497 -82.697899
46.76976 10.79766 -83.373596
46.574196 11.612247 -83.373199
47.330372 12.682115 -83.372902
45.179295 12.95497 -83.372498
45.902626 14.033843 -80.649101
45.650715 14.832804 -80.648598
45.384884 15.627292 -80.648201
46.044937 16.758993 -80.647697
45.745445 17.560022 -80.647102
46.858932 14.326215 -81.336403
45.650715 14.832804 -81.336502
45.384884 15.627292 -81.336502
45.105244 16.416973 -81.336502
45.745445 17.560022 -81.336601
46.858932 14.326215 -82.010399
46.330402 15.95286 -82.009499
46.044937 16.758993 -82.009003
45.745445 17.560022 -82.008499
45.902626 14.033843 -82.697899
45.384884 15.627292 -82.697998
45.745445 17.560022 -82.698097
45.902626 14.033843 -83.372002
45.650715 14.832804 -83.371597
45.384884 15.627292 -83.371002
46.044937 16.758993 -83.370499
45.745445 17.560022 -83.369904
44.16555 16.074953 -74.429497
47.744129 11.022611 -68.397903
47.544491 11.854168 -68.397499
47.330372 12.682115 -68.397202
46.140556 13.230608 -68.396797
47.744129 11.022611 -69.083298
47.544491 11.854168 -69.083397
47.330372 12.682115 -69.083504
45.179295 12.95497 -69.083504
46.76976 10.79766 -69.758499
47.544491 11.854168 -69.758202
44.432594 11.905659 -69.757797
45.179295 12.95497 -69.757301
44.946323 13.741471 -69.756798
46.76976 10.79766 -70.344803
47.544491 11.854168 -70.344803
45.398518 12.164477 -70.344902
45.179295 12.95497 -70.344902
47.929226 10.187696 -71.020798
47.744129 11.022611 -71.020401
47.544491 11.854168 -71.019997
44.432594 11.905659 -71.019501
45.179295 12.95497 -71.019096
47.929226 10.187696 -71.7062
47.744129 11.022611 -71.7062
46.574196 11.612247 -71.706299
45.398518 12.164477 -71.706299
45.179295 12.95497 -71.706398
45.902626 14.033843 -68.3964
46.601772 15.14182 -68.395897
46.330402 15.95286 -68.395401
46.044937 16.758993 -68.395103
45.745445 17.560022 -68.394501
45.902626 14.033843 -69.083603
46.601772 15.14182 -69.083603
46.330402 15.95286 -69.083702
46.044937 16.758993 -69.083702
45.745445 17.560022 -69.083801
45.650715 14.832804 -69.756302
46.330402 15.95286 -69.755798
46.044937 16.758993 -69.755203
45.745445 17.560022 -69.754501
45.902626 14.033843 -70.345001
45.650715 14.832804 -70.345001
46.330402 15.95286 -70.3451
46.044937 16.758993 -70.3451
45.745445 17.560022 -70.3451
45.902626 14.033843 -71.0187
45.650715 14.832804 -71.018204
45.384884 15.627292 -71.017799
46.044937 16.758993 -71.017197
45.745445 17.560022 -71.016602
45.902626 14.033843 -71.706398
46.601772 15.14182 -71.706497
45.384884 15.627292 -71.706497
46.044937 16.758993 -71.706596
45.745445 17.560022 -71.706596
47.817345 4.1834774 -65
47.737049 5.0173779 -65.677002
47.737049 5.0173779 -67.0382
47.737049 5.0173779 -67.721298
47.532871 6.6802926 -65
47.409039 7.5088716 -65
48.255581 8.5087643 -65
48.099735 9.3496304 -65
47.642216 5.8497262 -65.676697
48.255581 8.5087643 -65.676003
48.099735 9.3496304 -65.675797
47.642216 5.8497262 -66.359901
46.542603 6.5411201 -66.360001
48.255581 8.5087643 -66.360199
48.099735 9.3496304 -66.360199
47.642216 5.8497262 -67.037903
47.270771 8.3351164 -67.037102
47.118107 9.1588211 -67.036903
47.642216 5.8497262 -67.721397
46.542603 6.5411201 -67.721497
48.255581 8.5087643 -67.721703
48.099735 9.3496304 -67.721703
45.972931 9.7718716 -67.721802
46.95108 9.979784 -65
45.795391 10.572708 -65
47.544491 11.854168 -65
44.432594 11.905659 -65
46.140556 13.230608 -65
47.929226 10.187696 -65.675499
47.744129 11.022611 -65.675201
47.544491 11.854168 -65.674797
46.364445 12.423296 -65.6744
46.140556 13.230608 -65.674103
46.95108 9.979784 -66.360298
47.744129 11.022611 -66.360397
47.544491 11.854168 -66.360397
44.432594 11.905659 -66.360497
46.140556 13.230608 -66.360497
47.929226 10.187696 -67.036499
46.76976 10.79766 -67.036201
47.544491 11.854168 -67.035797
46.364445 12.423296 -67.0354
45.179295 12.95497 -67.034897
47.744129 11.022611 -67.721901
47.544491 11.854168 -67.721901
46.364445 12.423296 -67.722
46.140556 13.230608 -67.722
46.858932 14.326215 -65
46.601772 15.14182 -65
46.330402 15.95286 -65
46.044937 16.758993 -65
45.745445 17.560022 -65
46.858932 14.326215 -65.673698
46.601772 15.14182 -65.673203
46.330402 15.95286 -65.672897
46.044937 16.758993 -65.672401
45.745445 17.560022 -65.671799
46.858932 14.326215 -66.360603
45.650715 14.832804 -66.360603
46.330402 15.95286 -66.360703
46.044937 16.758993 -66.360703
44.811863 17.201654 -66.360802
45.902626 14.033843 -67.0345
46.601772 15.14182 -67.033997
46.330402 15.95286 -67.033401
46.044937 16.758993 -67.032997
44.811863 17.201654 -67.032402
46.858932 14.326215 -67.722099
46.601772 15.14182 -67.722099
46.330402 15.95286 -67.722198
46.044937 16.758993 -67.722198
45.745445 17.560022 -67.722298
36.00103 21.631598 -79.275398
36.00103 21.631598 -79.975403
34.78772 25.274782 -76.444504
39.732647 21.126213 -75.6912
38.135727 25.722876 -74.429901
39.357899 21.816414 -75.691299
37.30669 25.163683 -75.691399
33.207222 28.866598 -77.152901
32.69838 29.441738 -77.152901
35.460487 27.704762 -77.8078
34.471992 28.925453 -77.804703
33.207222 28.866598 -77.802902
36.248497 28.320423 -78.514297
34.471992 28.925453 -78.514297
33.207222 28.866598 -78.514297
34.341324 25.878052 -79.267097
35.748726 28.948723 -79.263802
34.471992 28.925453 -79.2621
32.452511 28.210539 -79.260002
32.69838 29.441738 -79.257797
34.341324 25.878052 -79.975601
34.672478 27.089102 -79.975601
35.238037 29.568241 -79.975601
33.207222 28.866598 -79.975601
35.471352 30.834774 -76.434799
33.441525 30.110868 -76.432899
32.910904 30.689939 -76.431198
32.910904 30.689939 -77.152901
33.441525 30.110868 -77.8013
33.441525 30.110868 -78.514297
33.441525 30.110868 -79.975601
40.25618 26.142687 -80.637497
40.138458 28.105236 -80.635498
38.832802 28.213711 -80.634399
38.964764 26.282068 -81.336998
37.681 26.384506 -81.336998
39.133133 29.488943 -81.336998
37.03651 28.936085 -81.337097
40.138458 28.105236 -81.996101
39.133133 29.488943 -81.993202
37.681 26.384506 -82.698502
38.832802 28.213711 -82.698502
37.535866 28.285313 -82.698502
40.25618 26.142687 -83.360603
40.138458 28.105236 -83.358398
39.641819 28.801497 -83.357002
36.737228 27.683498 -83.355598
37.303017 30.207363 -81.337097
40.138458 28.105236 -73.726196
39.641819 28.801497 -73.724701
40.138458 28.105236 -74.429901
39.641819 28.801497 -74.429901
39.133133 29.488943 -74.429901
38.964764 26.282068 -74.994202
38.500153 26.958084 -74.993103
38.832802 28.213711 -74.992203
39.133133 29.488943 -74.990997
38.500153 26.958084 -75.691399
39.641819 28.801497 -75.691399
38.334499 28.887129 -75.691399
38.61253 30.167408 -74.989998
38.61253 30.167408 -75.691399
38.080166 30.836683 -75.691498
42.936638 19.116621 -80.645401
43.502781 20.285664 -80.644699
42.936638 19.116621 -81.3367
44.040901 21.480204 -81.3368
42.936638 19.116621 -82.006401
43.502781 20.285664 -82.005798
44.040901 21.480204 -82.004898
43.502781 20.285664 -82.698196
44.040901 21.480204 -82.698303
40.615593 21.595684 -82.698303
43.502781 20.285664 -83.3675
44.040901 21.480204 -83.366798
42.856377 23.755651 -80.641701
42.435238 24.50001 -80.640701
41.569214 24.00001 -81.336899
40.706318 25.43611 -81.336899
42.435238 24.50001 -82.001701
40.706318 25.43611 -81.999802
41.569214 24.00001 -83.3638
45.432018 18.355703 -80.646599
45.104733 19.145838 -80.646004
45.432018 18.355703 -81.336601
45.104733 19.145838 -81.3367
44.409088 20.708281 -81.3367
45.432018 18.355703 -82.007698
45.104733 19.145838 -82.007103
45.432018 18.355703 -82.698097
45.104733 19.145838 -82.698196
44.763729 19.930094 -82.698196
45.432018 18.355703 -83.3694
45.104733 19.145838 -83.368797
44.184227 18.755106 -68.393402
43.850182 19.523357 -68.392799
43.502781 20.285664 -68.392197
44.040901 21.480204 -68.391296
44.184227 18.755106 -69.083801
43.850182 19.523357 -69.0839
44.040901 21.480204 -69.0839
43.263721 18.364374 -69.753304
43.850182 19.523357 -69.752602
44.040901 21.480204 -69.750999
43.850182 19.523357 -70.3452
44.040901 21.480204 -70.345299
42.768311 21.791548 -70.345299
43.263721 18.364374 -71.015404
43.850182 19.523357 -71.0149
44.040901 21.480204 -71.013496
43.850182 19.523357 -71.706703
44.040901 21.480204 -71.706802
42.768311 21.791548 -71.706802
42.381489 22.534626 -72.371696
41.981758 23.270842 -72.371002
41.569214 24.00001 -72.3703
42.001198 25.236862 -72.369202
42.381489 22.534626 -73.068199
42.856377 23.755651 -73.068199
42.435238 24.50001 -73.068298
41.144032 24.721825 -73.068298
41.498543 22.065155 -73.733803
42.856377 23.755651 -73.733002
42.435238 24.50001 -73.732002
40.286865 24.206787 -73.730904
43.659317 22.245539 -74.429703
42.381489 22.534626 -74.429703
42.856377 23.755651 -74.429703
41.569214 24.00001 -74.429802
41.144032 24.721825 -74.429802
41.498543 22.065155 -74.999001
42.856377 23.755651 -74.998199
41.569214 24.00001 -74.997597
41.144032 24.721825 -74.996696
43.659317 22.245539 -75.6912
41.569214 24.00001 -75.691299
41.144032 24.721825 -75.691299
43.659317 22.245539 -68.390602
43.659317 22.245539 -69.084
43.264435 23.004099 -69.084
43.659317 22.245539 -69.750099
43.264435 23.004099 -69.749199
43.264435 23.004099 -70.345299
42.856377 23.755651 -70.345398
43.659317 22.245539 -71.012604
43.264435 23.004099 -71.011703
42.856377 23.755651 -71.010803
42.381489 22.534626 -71.706902
41.981758 23.270842 -71.706902
42.435238 24.50001 -71.706902
42.001198 25.236862 -71.706902
44.504833 17.981096 -68.393898
45.432018 18.355703 -69.083801
44.409088 20.708281 -69.0839
44.504833 17.981096 -69.753899
44.409088 20.708281 -69.7519
45.432018 18.355703 -70.3452
45.104733 19.145838 -70.3452
44.409088 20.708281 -70.345299
45.432018 18.355703 -71.015999
44.409088 20.708281 -71.014198
45.432018 18.355703 -71.706703
45.104733 19.145838 -71.706703
44.409088 20.708281 -71.706802
41.554367 25.966028 -80.638496
41.094849 26.687326 -81.336998
41.094849 26.687326 -81.998398
40.622841 27.400454 -81.9972
41.554367 25.966028 -82.698402
40.622841 27.400454 -82.698502
41.554367 25.966028 -83.361603
40.622841 27.400454 -83.359398
41.554367 25.966028 -72.368202
41.094849 26.687326 -72.367203
41.554367 25.966028 -73.068298
41.094849 26.687326 -73.068298
40.622841 27.400454 -73.068298
41.554367 25.966028 -73.729897
41.094849 26.687326 -73.7285
40.622841 27.400454 -73.727402
41.554367 25.966028 -74.429802
41.094849 26.687326 -74.429802
41.554367 25.966028 -74.996002
41.094849 26.687326 -74.995003
41.554367 25.966028 -75.691299
41.094849 26.687326 -75.691399
41.554367 25.966028 -71.706902
44.040901 21.480204 -67.028999
44.184227 18.755106 -67.722298
44.040901 21.480204 -67.722397
43.659317 22.245539 -67.722504
45.432018 18.355703 -66.360802
45.104733 19.145838 -66.360802
45.432018 18.355703 -67.031898
45.104733 19.145838 -67.031197
44.763729 19.930094 -67.030502
44.409088 20.708281 -67.0298
44.504833 17.981096 -67.722298
44.763729 19.930094 -67.722397
44.409088 20.708281 -67.722397
48.932846 2.5644629 -80.653297
48.813541 4.2706332 -80.652901
48.932846 2.5644629 -82.014503
48.880638 3.4180686 -82.014297
48.813541 4.2706332 -82.014099
48.731571 5.1219068 -82.013901
48.932846 2.5644629 -82.696899
48.880638 3.4180686 -82.696999
48.813541 4.2706332 -82.697098
48.932846 2.5644629 -83.376198
48.813541 4.2706332 -83.375801
48.731571 5.1219068 -83.375603
48.880638 3.4180686 -77.151299
48.813541 4.2706332 -77.151398
48.731571 5.1219068 -77.151497
48.880638 3.4180686 -77.830002
48.932846 2.5644629 -79.291199
48.731571 5.1219068 -79.290298
48.932846 2.5644629 -79.973602
48.813541 4.2706332 -79.9739
48.731571 5.1219068 -79.973999
48.634762 5.9715953 -82.013603
48.634762 5.9715953 -83.375298
48.634762 5.9715953 -77.151604
48.396725 7.6653066 -77.151802
48.523136 6.8194656 -78.5131
48.396725 7.6653066 -78.513199
48.880638 3.4180686 -68.4002
48.813541 4.2706332 -68.400002
48.813541 4.2706332 -69.082703
48.880638 3.4180686 -69.7612
48.932846 2.5644629 -70.344002
48.813541 4.2706332 -70.3442
48.932846 2.5644629 -71.023102
48.880638 3.4180686 -71.022903
48.813541 4.2706332 -71.022697
48.932846 2.5644629 -71.705399
48.813541 4.2706332 -71.705597
48.634762 5.9715953 -68.399597
48.523136 6.8194656 -68.399399
48.396725 7.6653066 -68.399101
48.523136 6.8194656 -69.083
48.634762 5.9715953 -69.760399
48.523136 6.8194656 -69.760101
48.396725 7.6653066 -69.759804
48.523136 6.8194656 -70.344398
48.396725 7.6653066 -70.344498
48.634762 5.9715953 -71.022202
48.523136 6.8194656 -71.021896
48.396725 7.6653066 -71.021698
48.523136 6.8194656 -71.705902
48.396725 7.6653066 -71.705902
48.880638 3.4180686 -65
48.731571 5.1219068 -65
48.932846 2.5644629 -65.677597
48.880638 3.4180686 -65.677399
48.813541 4.2706332 -65.6772
48.932846 2.5644629 -66.359497
48.880638 3.4180686 -66.359596
48.813541 4.2706332 -66.359703
48.731571 5.1219068 -66.359802
48.932846 2.5644629 -67.038902
48.880638 3.4180686 -67.038597
48.813541 4.2706332 -67.038399
48.932846 2.5644629 -67.721001
48.880638 3.4180686 -67.7211
48.813541 4.2706332 -67.721199
48.634762 5.9715953 -65
48.523136 6.8194656 -65.676498
48.396725 7.6653066 -65.6763
48.396725 7.6653066 -66.3601
48.523136 6.8194656 -67.037697
48.396725 7.6653066 -67.037399
48.396725 7.6653066 -67.721603
3.0504463 34.866814 -92.429199
3.6583769 34.808277 -92.733002
5.4750919 34.569111 -92.4291
4.5092859 36.724194 -92.429199
6.8691278 35.338577 -92.822197
6.6783185 34.356949 -93.790604
4.871058 34.659382 -93.790604
6.6783185 34.356949 -94.109802
4.871058 34.659382 -94.086601
4.5092859 36.724194 -94.068901
3.1376019 35.86301 -88.244598
2.4415867 34.914734 -88.244598
4.2655411 34.739101 -88.567497
3.8674269 36.797325 -88.542603
3.0504463 34.866814 -89.606201
3.1376019 35.86301 -91.067703
4.2655411 34.739101 -91.406998
3.5538518 33.813755 -91.384804
3.971952 37.791847 -84.060303
3.1376019 35.86301 -84.060303
2.5113463 35.912296 -84.060303
3.971952 37.791847 -84.319702
3.1376019 35.86301 -84.299797
3.971952 37.791847 -85.321701
3.2247574 36.859203 -85.321701
2.3718271 33.917171 -85.321701
3.8674269 36.797325 -85.641502
2.9632907 33.870621 -85.615601
2.5113463 35.912296 -85.585899
3.8674269 36.797325 -86.783203
3.2247574 36.859203 -86.783203
2.4415867 34.914734 -86.783203
3.8674269 36.797325 -87.091301
3.0504463 34.866814 -87.068398
2.5113463 35.912296 -87.0271
6.6783185 34.356949 -88.244598
5.6315231 35.556797 -88.244598
5.149404 36.639919 -88.244598
4.5092859 36.724194 -88.244598
6.6783185 34.356949 -88.642799
6.0778036 34.46825 -88.625099
5.149404 36.639919 -88.5858
7.8734069 34.102924 -89.606201
6.8691278 35.338577 -89.606201
6.0778036 34.46825 -89.606201
5.149404 36.639919 -89.606201
4.3874135 35.731647 -89.606201
5.149404 36.639919 -90.0131
7.8734069 34.102924 -91.067703
4.3874135 35.731647 -91.067703
6.6783185 34.356949 -91.4757
6.2514548 35.453056 -91.458504
5.4750919 34.569111 -91.440201
7.8734069 34.102924 -84.060303
7.4847088 35.213337 -84.060303
6.4251065 36.437866 -84.060303
5.6315231 35.556797 -84.060303
5.149404 36.639919 -84.060303
4.6311588 37.71674 -84.060303
7.4847088 35.213337 -84.417
6.8691278 35.338577 -84.402901
6.4251065 36.437866 -84.387901
5.7879543 36.544487 -84.374702
5.2885776 37.630188 -84.357803
4.6311588 37.71674 -84.339699
7.8734069 34.102924 -85.321701
7.4847088 35.213337 -85.321701
6.8691278 35.338577 -85.321701
6.0778036 34.46825 -85.321701
5.6315231 35.556797 -85.321701
5.149404 36.639919 -85.321701
4.6311588 37.71674 -85.321701
7.8734069 34.102924 -85.765297
7.4847088 35.213337 -85.750397
6.8691278 35.338577 -85.734497
6.0778036 34.46825 -85.717598
5.7879543 36.544487 -85.699699
5.2885776 37.630188 -85.680603
4.5092859 36.724194 -85.660004
7.4847088 35.213337 -86.783203
6.6783185 34.356949 -86.783203
6.2514548 35.453056 -86.783203
5.4750919 34.569111 -86.783203
5.149404 36.639919 -86.783203
4.3874135 35.731647 -86.783203
6.6783185 34.356949 -87.184898
6.2514548 35.453056 -87.170303
5.4750919 34.569111 -87.148598
5.010231 35.649651 -87.132103
4.6311588 37.71674 -87.110802
8.0139828 41.22834 -84.060303
2.2502937 42.941078 -84.060303
2.9996638 42.895245 -84.263702
2.3549585 44.938339 -84.180801
2.3549585 44.938339 -85.321701
3.2089427 45.887936 -88.454697
1.6402643 46.971371 -85.321701
11.987254 39.208492 -92.900002
10.160729 40.752419 -92.8629
11.129092 41.534843 -94.109901
10.160729 40.752419 -94.109802
16.108238 39.868843 -92.4291
16.108238 39.868843 -93.790604
16.108238 39.868843 -94.110001
8.4672747 33.96035 -84.060303
11.124511 34.238068 -84.482498
11.124511 34.238068 -85.321701
11.124511 34.238068 -85.820396
8.4672747 33.96035 -85.777
12.046154 34.984142 -86.783203
11.987254 39.208492 -88.244598
11.576916 40.372948 -88.244598
10.160729 40.752419 -88.244598
9.4480886 40.923508 -88.244598
11.694881 38.252186 -88.721397
11.694881 38.252186 -89.606201
11.576916 40.372948 -89.606201
9.918807 39.782124 -89.606201
11.987254 39.208492 -90.162102
11.852557 41.334209 -90.148003
10.61146 39.602993 -90.135498
11.025635 38.450428 -84.060303
11.852557 41.334209 -84.461899
11.129092 41.534843 -84.452599
10.402651 41.722713 -84.440697
12.279626 40.164795 -85.321701
10.870275 40.568916 -85.321701
10.402651 41.722713 -85.321701
11.852557 41.334209 -85.798798
11.987254 39.208492 -86.783203
10.870275 40.568916 -86.783203
9.918807 39.782124 -86.783203
9.4480886 40.923508 -86.783203
11.987254 39.208492 -87.268501
11.852557 41.334209 -87.258301
10.870275 40.568916 -87.2453
16.059631 34.439632 -89.606102
13.338803 36.648006 -84.499298
16.059631 34.439632 -85.321602
14.457072 34.05867 -85.321602
12.312741 33.82893 -86.783203
12.996782 35.708313 -87.2995
15.048906 41.34647 -88.244598
14.325155 41.602764 -88.244598
16.108238 39.868843 -88.773499
15.048906 41.34647 -88.755501
13.674012 39.711727 -88.746597
15.768074 41.077583 -89.606201
14.706885 40.406776 -89.606201
13.999584 40.657246 -89.606201
16.108238 39.868843 -90.219597
15.768074 41.077583 -90.2108
15.048906 41.34647 -90.199799
13.287611 40.89547 -90.173302
16.108238 39.868843 -91.067703
15.768074 41.077583 -91.067703
15.768074 41.077583 -91.600304
15.048906 41.34647 -91.591003
13.674012 39.711727 -91.5811
15.768074 41.077583 -84.060303
15.048906 41.34647 -84.060303
14.325155 41.602764 -84.060303
13.287611 40.89547 -84.060303
12.571998 41.121101 -84.060303
15.768074 41.077583 -84.507698
14.325155 41.602764 -84.490402
15.048906 41.34647 -85.321701
14.325155 41.602764 -85.321701
15.409709 40.144001 -85.849297
14.706885 40.406776 -85.839699
14.325155 41.602764 -85.8312
13.287611 40.89547 -86.783203
16.108238 39.868843 -87.318398
15.409709 40.144001 -87.310799
13.999584 40.657246 -87.2892
12.978597 39.944412 -87.280098
9.6730433 41.897881 -84.430298
16.12644 42.011166 -85.321602
18.613516 36.531315 -92.993599
18.411615 37.749336 -92.987503
18.849987 38.648129 -92.4291
16.41073 38.661194 -92.4291
18.172741 38.971161 -93.790604
17.082836 38.368954 -93.790604
22.926922 33.990532 -92.4291
19.067505 37.422321 -88.244598
16.482254 35.345936 -88.799004
19.248484 36.200771 -90.271004
17.0965 35.052956 -90.257202
19.248484 36.200771 -91.067596
19.067505 37.422321 -91.067596
18.907604 34.110153 -84.060204
19.717958 37.083717 -84.060204
17.327497 37.15855 -84.060204
19.067505 37.422321 -85.321602
19.717958 37.083717 -85.901604
17.70554 34.749298 -85.895302
17.0965 35.052956 -85.888496
19.248484 36.200771 -86.783203
19.248484 36.200771 -87.361
19.067505 37.422321 -87.355698
18.849987 38.648129 -88.244598
17.75012 38.064857 -88.244598
17.489571 39.282501 -88.244598
17.192194 40.502205 -88.244598
16.482849 40.796024 -88.244598
20.187435 37.966663 -88.819099
19.521494 38.313332 -88.812401
18.849987 38.648129 -88.806503
17.896303 40.196049 -88.791
17.192194 40.502205 -88.782501
19.521494 38.313332 -89.606102
18.849987 38.648129 -89.606102
16.801462 39.581699 -89.606102
16.482849 40.796024 -89.606201
18.849987 38.648129 -91.067596
16.801462 39.581699 -91.067703
19.521494 38.313332 -91.641502
17.082836 38.368954 -91.622597
19.975481 39.204338 -84.060204
19.288359 39.546925 -84.060204
17.896303 40.196049 -84.060303
17.582926 41.422707 -84.060303
16.857458 41.723209 -84.060303
20.187435 37.966663 -84.551399
19.288359 39.546925 -84.539803
18.172741 38.971161 -84.5345
17.896303 40.196049 -84.527802
17.192194 40.502205 -84.521896
16.857458 41.723209 -84.515602
20.187435 37.966663 -85.321602
18.849987 38.648129 -85.321602
17.489571 39.282501 -85.321602
16.857458 41.723209 -85.321602
17.75012 38.064857 -85.881302
17.489571 39.282501 -85.875
17.192194 40.502205 -85.866997
16.482849 40.796024 -85.858398
19.521494 38.313332 -86.783203
18.849987 38.648129 -86.783203
17.75012 38.064857 -86.783203
17.489571 39.282501 -86.783203
16.482849 40.796024 -86.783203
18.849987 38.648129 -87.348801
18.172741 38.971161 -87.342796
17.896303 40.196049 -87.335197
16.801462 39.581699 -87.327103
21.196804 33.921902 -84.060204
5.2885776 37.630188 -82.698799
4.6311588 37.71674 -82.698799
7.2768002 34.235188 -83.129402
6.8691278 35.338577 -83.113701
6.4251065 36.437866 -83.097
5.7879543 36.544487 -83.082199
5.2885776 37.630188 -83.0634
4.6311588 37.71674 -83.046799
4.2706246 48.813541 -80.266602
3.4182215 48.880627 -80.229103
2.5642881 48.932858 -80.167397
4.2706246 48.813541 -81.337303
3.3484619 47.883064 -81.337303
2.5119557 47.934227 -81.337303
1.6751635 47.97076 -81.337303
4.2706246 48.813541 -81.612801
3.3484619 47.883064 -81.572502
2.5119557 47.934227 -81.463699
4.0963135 46.821152 -82.698799
3.2787023 46.885502 -82.698799
2.5119557 47.934227 -82.698799
4.2706246 48.813541 -83.001198
3.2787023 46.885502 -82.9757
2.4596233 46.935596 -82.923103
4.2706246 48.813541 -79.975899
3.4182215 48.880627 -79.975899
2.5642881 48.932858 -79.975899
1.7100627 48.97015 -79.975899
7.4670157 42.346706 -82.698799
7.1958351 45.433689 -82.698799
7.6651287 48.396755 -80.351196
6.8194814 48.523136 -80.328499
5.9717574 48.634743 -80.307602
5.1217275 48.73159 -80.288498
7.5086975 47.409065 -81.337303
6.6803083 47.532867 -81.337303
5.8498845 47.642197 -81.337303
5.0172024 47.737068 -81.337303
7.5086975 47.409065 -81.704002
6.6803083 47.532867 -81.680702
5.8498845 47.642197 -81.662598
5.0172024 47.737068 -81.638397
4.9126773 46.742546 -82.698799
4.9126773 46.742546 -83.025398
7.6651287 48.396755 -79.975899
6.8194814 48.523136 -79.975899
5.9717574 48.634743 -79.975899
5.1217275 48.73159 -79.975899
11.129092 41.534843 -80.440399
11.129092 41.534843 -81.337303
10.402651 41.722713 -81.337303
11.852557 41.334209 -81.806801
10.870275 40.568916 -81.795799
10.402651 41.722713 -81.781799
11.576916 40.372948 -82.698799
10.870275 40.568916 -82.698799
10.160729 40.752419 -82.698799
9.4480886 40.923508 -82.698799
11.852557 41.334209 -83.177498
10.61146 39.602993 -83.167
10.402651 41.722713 -83.155899
15.048906 41.34647 -80.494003
15.768074 41.077583 -81.337303
13.999584 40.657246 -81.337303
13.287611 40.89547 -81.337303
12.571998 41.121101 -81.337303
14.325155 41.602764 -81.842201
15.048906 41.34647 -82.6987
14.325155 41.602764 -82.6987
13.287611 40.89547 -82.6987
12.571998 41.121101 -82.6987
15.048906 41.34647 -83.218102
14.325155 41.602764 -83.207901
12.571998 41.121101 -83.189499
12.571998 41.121101 -79.9758
12.128198 42.295471 -80.453201
10.644573 42.693008 -80.429199
12.128198 42.295471 -81.337303
9.6730433 41.897881 -81.337303
9.6730433 41.897881 -81.766998
8.9400692 42.060375 -81.751198
8.9400692 42.060375 -82.698799
8.5864096 44.173222 -82.698799
9.6730433 41.897881 -83.1418
12.128198 42.295471 -79.058502
12.128198 42.295471 -79.9758
11.387908 42.500771 -79.9758
10.18752 47.929264 -80.399696
9.3496456 48.099731 -80.386299
8.5089245 48.25555 -80.369301
10.18752 47.929264 -81.337303
9.3496456 48.099731 -81.337303
8.3352737 47.270744 -81.337303
9.3496456 48.099731 -81.737297
8.3352737 47.270744 -81.719597
8.5089245 48.25555 -78.967499
9.3496456 48.099731 -79.975899
8.5089245 48.25555 -79.975899
16.12644 42.011166 -80.502098
14.650727 42.548279 -80.485603
13.596624 41.846527 -80.4748
12.86437 42.077404 -80.465302
15.390926 42.28616 -81.337303
16.12644 42.011166 -81.8592
15.390926 42.28616 -81.850899
13.596624 41.846527 -81.8311
12.86437 42.077404 -81.819397
16.12644 42.011166 -82.6987
16.12644 42.011166 -83.2276
13.596624 41.846527 -83.198898
12.86437 42.077404 -78.514503
13.596624 41.846527 -79.085701
12.86437 42.077404 -79.072502
15.390926 42.28616 -79.9758
14.650727 42.548279 -79.9758
13.596624 41.846527 -79.9758
18.907604 34.110153 -81.337303
18.907604 34.110153 -81.919701
18.907604 34.110153 -82.6987
19.717958 37.083717 -82.6987
19.248484 36.200771 -83.276398
19.999916 34.641064 -79.9758
18.595364 39.877468 -81.337303
18.303038 41.109596 -81.337303
17.192194 40.502205 -81.337303
16.857458 41.723209 -81.337303
19.521494 38.313332 -81.907997
19.288359 39.546925 -81.899803
18.172741 38.971161 -81.8937
18.303038 41.109596 -81.885803
17.192194 40.502205 -81.877502
16.857458 41.723209 -81.868599
19.521494 38.313332 -82.6987
19.288359 39.546925 -82.6987
18.595364 39.877468 -82.6987
18.303038 41.109596 -82.6987
17.192194 40.502205 -82.6987
16.482849 40.796024 -82.6987
19.521494 38.313332 -83.271004
19.288359 39.546925 -83.265297
18.595364 39.877468 -83.258102
