ply
format ascii 1.0
element vertex 763
property float x
property float y
property float z
end_header
34.4682693481445312 -6.07768869400024414 -64.9999008178710938
34.569091796875 -5.47521877288818359 -64.9999008178710938
35.6496505737304688 -5.01021957397460938 -64.9999008178710938
35.7316627502441406 -4.38729476928710938 -64.9999008178710938
34.8082656860351562 -3.65850472450256348 -64.9999008178710938
33.8706207275390625 -2.96329641342163086 -64.9999008178710938
35.9123039245605469 -2.51123404502868652 -64.9999008178710938
35.9506645202636719 -1.88409519195556641 -64.9999008178710938
35.9780693054199219 -1.25638246536254883 -64.9999008178710938
34.9946708679199219 -0.610834479331970215 -64.9999008178710938
34 6.15756970694276984e-14 -64.9999008178710938
35.9945182800292969 0.628286898136138916 -64.9999008178710938
34.9786796569824219 1.22148287296295166 -64.9999008178710938
35.9506645202636719 1.88409519195556641 -64.9999008178710938
34.9147415161132812 2.44147753715515137 -64.9999008178710938
33.8706207275390625 2.96329641342163086 -64.9999008178710938
35.8027877807617188 3.76303339004516602 -64.9999008178710938
35.7316627502441406 4.38729476928710938 -64.9999008178710938
34.6593856811523438 4.87104654312133789 -64.9999008178710938
34.569091796875 5.47521877288818359 -64.9999008178710938
34.4682693481445312 6.07768869400024414 -64.9999008178710938
34.3569526672363281 6.67830753326416016 -64.9999008178710938
35.2133102416992188 7.48483800888061523 -64.9999008178710938
34.1029510498046875 7.87329339981079102 -64.9999008178710938
33.9603500366210938 8.46726322174072266 -64.9999008178710938
34.7733345031738281 9.31747245788574219 -64.9999008178710938
35.566680908203125 10.1985931396484375 -64.9999008178710938
34.426971435546875 10.5253820419311523 -64.9999008178710938
34.238037109375 11.1246023178100586 -64.9999008178710938
34.0386619567871094 11.7204685211181641 -64.9999008178710938
34.7686233520507812 12.6547508239746094 -64.9999008178710938
34.5424766540527344 13.2596092224121094 -64.9999008178710938
35.2329940795898438 14.2350349426269531 -64.9999008178710938
34.0586738586425781 14.4570608139038086 -64.9999008178710938
33.8011817932128906 15.04925537109375 -64.9999008178710938
35.34600830078125 16.4821014404296875 -64.9999008178710938
35.0529594421386719 17.0964889526367188 -64.9999008178710938
34.7492523193359375 17.7056331634521484 -64.9999008178710938
35.3179054260253906 18.7788562774658203 -64.9999008178710938
35.8594169616699219 19.8771762847900391 -64.9999008178710938
34.6410102844238281 20.0000076293945312 -64.9999008178710938
0.857167363166809082 0.515038013458251953 -64.9999008178710938
0.848048269748687744 0.529918968677520752 -64.9999008178710938
0.83867037296295166 0.544639348983764648 -64.9999008178710938
0.82903754711151123 0.559192955493927002 -64.9999008178710938
0.819152176380157471 0.573576211929321289 -64.9999008178710938
0.809016704559326172 0.587785661220550537 -64.9999008178710938
0.798635423183441162 0.601815164089202881 -64.9999008178710938
0.788010835647583008 0.615661382675170898 -64.9999008178710938
0.777146220207214355 0.629320085048675537 -64.9999008178710938
0.766044259071350098 0.642787814140319824 -64.9999008178710938
0.754709601402282715 0.656059026718139648 -64.9999008178710938
0.743144989013671875 0.669130384922027588 -64.9999008178710938
0.731353402137756348 0.681998670101165771 -64.9999008178710938
0.719339728355407715 0.694658458232879639 -64.9999008178710938
0.707106888294219971 0.707106649875640869 -64.9999008178710938
0.69465869665145874 0.719339489936828613 -64.9999008178710938
0.681998193264007568 0.731353878974914551 -64.9999008178710938
0.669130623340606689 0.743144810199737549 -64.9999008178710938
0.65605926513671875 0.754709362983703613 -64.9999008178710938
0.642787337303161621 0.766044676303863525 -64.9999008178710938
0.629320323467254639 0.777146041393280029 -64.9999008178710938
0.61566162109375 0.788010597229003906 -64.9999008178710938
0.601814627647399902 0.798635780811309814 -64.9999008178710938
0.587785065174102783 0.8090171217918396 -64.9999008178710938
0.573576509952545166 0.819151997566223145 -64.9999008178710938
0.559193193912506104 0.829037368297576904 -64.9999008178710938
0.544638752937316895 0.838670730590820312 -64.9999008178710938
0.529920101165771484 0.848047554492950439 -64.9999008178710938
0.515041708946228027 0.857165098190307617 -64.9999008178710938
0.499997884035110474 0.866026639938354492 -64.9999008178710938
0.484810352325439453 0.87461930513381958 -64.9999008178710938
0.469475209712982178 0.882945656776428223 -64.9999008178710938
0.453988194465637207 0.891007661819458008 -64.9999008178710938
0.438371807336807251 0.89879375696182251 -64.9999008178710938
0.42262190580368042 0.906306087970733643 -64.9999008178710938
0.406734168529510498 0.913546562194824219 -64.9999008178710938
0.390731692314147949 0.920504629611968994 -64.9999008178710938
0.374610215425491333 0.927182376384735107 -64.9999008178710938
0.358365327119827271 0.933581411838531494 -64.9999008178710938
0.342020601034164429 0.939692437648773193 -64.9999008178710938
0.325571715831756592 0.945517361164093018 -64.9999008178710938
0.309014201164245605 0.95105743408203125 -64.9999008178710938
0.292372047901153564 0.956304669380187988 -64.9999008178710938
0.275640875101089478 0.961260676383972168 -64.9999008178710938
0.25881609320640564 0.965926647186279297 -64.9999008178710938
0 0 -64.9999008178710938
0.224954485893249512 0.974369287490844727 -64.9999008178710938
0.207908570766448975 0.978148281574249268 -64.9999008178710938
0.190809100866317749 0.981627166271209717 -64.9999008178710938
0.173651531338691711 0.984807133674621582 -64.9999008178710938
0.156431198120117188 0.987688839435577393 -64.9999008178710938
0.13917309045791626 0.990268051624298096 -64.9999008178710938
0.121872596442699432 0.992545723915100098 -64.9999008178710938
0.104525052011013031 0.994522273540496826 -64.9999008178710938
0.0871556103229522705 0.996194720268249512 -64.9999008178710938
0.0697596222162246704 0.997563838958740234 -64.9999008178710938
0.0523324087262153625 0.998629748821258545 -64.9999008178710938
0.0348992384970188141 0.999390840530395508 -64.9999008178710938
0.0174554400146007538 0.999847650527954102 -64.9999008178710938
-0.0174527876079082489 -0.999847710132598877 -66.3018035888671875
-3.67320512850710656e-06 -1 -65.987396240234375
0.0174554400146007538 -0.999847650527954102 -65.8802032470703125
0.0348992384970188141 -0.999390840530395508 -65.880096435546875
0.0523324087262153625 -0.998629748821258545 -65.880096435546875
0.0697596222162246704 -0.997563838958740234 -65.880096435546875
0.0871556103229522705 -0.996194720268249512 -65.880096435546875
0.104525052011013031 -0.994522273540496826 -65.880096435546875
0.121872596442699432 -0.992545723915100098 -65.880096435546875
0.13917309045791626 -0.990268051624298096 -65.880096435546875
0.156431198120117188 -0.987688839435577393 -65.880096435546875
0.173651531338691711 -0.984807133674621582 -65.880096435546875
0.190809100866317749 -0.981627166271209717 -65.880096435546875
0.207908570766448975 -0.978148281574249268 -65.880096435546875
0.224954485893249512 -0.974369287490844727 -65.880096435546875
0.241922125220298767 -0.97029566764831543 -65.880096435546875
0.25881609320640564 -0.965926647186279297 -65.880096435546875
0.275640875101089478 -0.961260676383972168 -65.880096435546875
0.292372047901153564 -0.956304669380187988 -65.880096435546875
0.309014201164245605 -0.95105743408203125 -65.880096435546875
0.325571715831756592 -0.945517361164093018 -65.880096435546875
0.342020601034164429 -0.939692437648773193 -65.880096435546875
0.358365327119827271 -0.933581411838531494 -65.880096435546875
0.374610215425491333 -0.927182376384735107 -65.880096435546875
0.390731692314147949 -0.920504629611968994 -65.880096435546875
0.406734168529510498 -0.913546562194824219 -65.880096435546875
0.42262190580368042 -0.906306087970733643 -65.880096435546875
0.438371807336807251 -0.89879375696182251 -65.880096435546875
0.453988194465637207 -0.891007661819458008 -65.880096435546875
0.469475209712982178 -0.882945656776428223 -65.880096435546875
0.484810352325439453 -0.87461930513381958 -65.880096435546875
0.499997884035110474 -0.866026639938354492 -65.880096435546875
0.515041708946228027 -0.857165098190307617 -65.880096435546875
0.529920101165771484 -0.848047554492950439 -65.880096435546875
0.544638752937316895 -0.838670730590820312 -65.880096435546875
0.559193193912506104 -0.829037368297576904 -65.880096435546875
0.573576509952545166 -0.819151997566223145 -65.8799972534179688
0.587785065174102783 -0.8090171217918396 -65.8799972534179688
0.601814627647399902 -0.798635780811309814 -65.8799972534179688
0.61566162109375 -0.788010597229003906 -65.8799972534179688
0.629320323467254639 -0.777146041393280029 -65.8799972534179688
0.642787337303161621 -0.766044676303863525 -65.8799972534179688
0.65605926513671875 -0.754709362983703613 -65.8799972534179688
0.669130623340606689 -0.743144810199737549 -65.8799972534179688
0.681998193264007568 -0.731353878974914551 -65.8799972534179688
0.69465869665145874 -0.719339489936828613 -65.8799972534179688
0.707106888294219971 -0.707106649875640869 -65.8799972534179688
0.719339728355407715 -0.694658458232879639 -65.8798980712890625
0.731353402137756348 -0.681998670101165771 -65.8798980712890625
0.743144989013671875 -0.669130384922027588 -65.8798980712890625
0.754709601402282715 -0.656059026718139648 -65.8798980712890625
0.766044259071350098 -0.642787814140319824 -65.8798980712890625
0.777146220207214355 -0.629320085048675537 -65.8798980712890625
0.788010835647583008 -0.615661382675170898 -65.8798980712890625
0.798635423183441162 -0.601815164089202881 -65.8797988891601562
0.809016704559326172 -0.587785661220550537 -65.8797988891601562
0.819152176380157471 -0.573576211929321289 -65.8797988891601562
0.82903754711151123 -0.559192955493927002 -65.8797988891601562
0.83867037296295166 -0.544639348983764648 -65.8797988891601562
0.848048269748687744 -0.529918968677520752 -65.87969970703125
0.857167363166809082 -0.515038013458251953 -65.87969970703125
35.5070381164550781 -20.5000076293945312 -65.87969970703125
35.8594169616699219 -19.8771762847900391 -65.87969970703125
34.4349594116210938 -18.3093852996826172 -65.8796005249023438
33.858245849609375 -17.2516422271728516 -65.8796005249023438
34.1541671752929688 -16.6581172943115234 -65.8796005249023438
34.4397010803222656 -16.0594825744628906 -65.8795013427734375
35.6282730102539062 -15.8627281188964844 -65.8795013427734375
34.0586738586425781 -14.4570608139038086 -65.8795013427734375
34.3058090209960938 -13.8604288101196289 -65.8794021606445312
35.4760589599609375 -13.6179771423339844 -65.8794021606445312
35.7083168029785156 -12.9967708587646484 -65.879302978515625
35.9296989440917969 -12.3716058731079102 -65.879302978515625
35.1890945434570312 -11.433619499206543 -65.8792037963867188
34.426971435546875 -10.5253820419311523 -65.8792037963867188
35.566680908203125 -10.1985931396484375 -65.8790969848632812
34.7733345031738281 -9.31747245788574219 -65.8790969848632812
35.9009437561035156 -8.95110702514648438 -65.878997802734375
36.0516891479492188 -8.3231964111328125 -65.8788986206054688
35.2133102416992188 -7.48483800888061523 -65.8788986206054688
35.3385810852050781 -6.86911630630493164 -65.8787994384765625
34.4682693481445312 -6.07768869400024414 -65.8787002563476562
35.5567779541015625 -5.63165378570556641 -65.87860107421875
35.6496505737304688 -5.01021957397460938 -65.8785018920898438
35.7316627502441406 -4.38729476928710938 -65.8785018920898438
33.8137435913085938 -3.55397605895996094 -65.8783035278320312
33.8706207275390625 -2.96329641342163086 -65.8781967163085938
34.9147415161132812 -2.44147753715515137 -65.8780975341796875
35.9506645202636719 -1.88409519195556641 -65.8779983520507812
34.9786796569824219 -1.22148287296295166 -65.877899169921875
34.9946708679199219 -0.610834479331970215 -65.8777008056640625
34 5.92164392607813506e-14 -65.8776016235351562
33.9948234558105469 0.593382060527801514 -65.87750244140625
33.9792861938476562 1.18658339977264404 -65.8772964477539062
34.9520339965820312 1.83175921440124512 -65.8770980834960938
35.9123039245605469 2.51123404502868652 -65.8768997192382812
35.8630104064941406 3.13760805130004883 -65.876800537109375
33.8137435913085938 3.55397605895996094 -65.8765029907226562
35.7316627502441406 4.38729476928710938 -65.8762969970703125
34.6593856811523438 4.87104654312133789 -65.8760986328125
34.569091796875 5.47521877288818359 -65.8758010864257812
35.4530792236328125 6.25133705139160156 -65.8756027221679688
34.3569526672363281 6.67830753326416016 -65.8752975463867188
34.2351608276367188 7.27692604064941406 -65.8749008178710938
36.0516891479492188 8.3231964111328125 -65.874603271484375
34.9306488037109375 8.70918464660644531 -65.874298095703125
35.7392578125 9.57629108428955078 -65.8740005493164062
34.6054191589355469 9.92295551300048828 -65.87359619140625
35.3832740783691406 10.817753791809082 -65.873199462890625
35.1890945434570312 11.433619499206543 -65.8729019165039062
34.0386619567871094 11.7204685211181641 -65.87249755859375
34.7686233520507812 12.6547508239746094 -65.872100830078125
34.5424766540527344 13.2596092224121094 -65.8715972900390625
34.3058090209960938 13.8604288101196289 -65.8712005615234375
34.0586738586425781 14.4570608139038086 -65.870697021484375
33.8011817932128906 15.04925537109375 -65.8701019287109375
35.34600830078125 16.4821014404296875 -65.869598388671875
34.1541671752929688 16.6581172943115234 -65.8691024780273438
33.858245849609375 17.2516422271728516 -65.8684005737304688
35.3179054260253906 18.7788562774658203 -65.8677978515625
34.9847984313964844 19.3923683166503906 -65.8672027587890625
34.6410102844238281 20.0000076293945312 -65.8664016723632812
0.857167363166809082 0.515038013458251953 -65.8656997680664062
0.848048269748687744 0.529918968677520752 -65.864898681640625
0.83867037296295166 0.544639348983764648 -65.8640975952148438
0.82903754711151123 0.559192955493927002 -65.86309814453125
0.819152176380157471 0.573576211929321289 -65.8620986938476562
0.809016704559326172 0.587785661220550537 -65.8610000610351562
0.798635423183441162 0.601815164089202881 -65.85980224609375
0.788010835647583008 0.615661382675170898 -65.8588027954101562
0.777146220207214355 0.629320085048675537 -65.8574981689453125
0.766044259071350098 0.642787814140319824 -65.8563995361328125
0.754709601402282715 0.656059026718139648 -65.8552017211914062
0.743144989013671875 0.669130384922027588 -65.8538970947265625
0.731353402137756348 0.681998670101165771 -65.8519973754882812
0.719339728355407715 0.694658458232879639 -65.8506011962890625
0.707106888294219971 0.707106649875640869 -65.8488006591796875
0.69465869665145874 0.719339489936828613 -65.8469009399414062
0.681998193264007568 0.731353878974914551 -65.8445968627929688
0.669130623340606689 0.743144810199737549 -65.8423995971679688
0.65605926513671875 0.754709362983703613 -65.8404998779296875
0.642787337303161621 0.766044676303863525 -65.8380966186523438
0.629320323467254639 0.777146041393280029 -65.83599853515625
0.61566162109375 0.788010597229003906 -65.8332977294921875
0.601814627647399902 0.798635780811309814 -65.8300018310546875
0.587785065174102783 0.8090171217918396 -65.8274993896484375
0.573576509952545166 0.819151997566223145 -65.8243026733398438
0.559193193912506104 0.829037368297576904 -65.8208999633789062
0.544638752937316895 0.838670730590820312 -65.8172988891601562
0.529920101165771484 0.848047554492950439 -65.8142013549804688
0.515041708946228027 0.857165098190307617 -65.8107986450195312
0.499997884035110474 0.866026639938354492 -65.80670166015625
0.484810352325439453 0.87461930513381958 -65.8030014038085938
0.469475209712982178 0.882945656776428223 -65.7983016967773438
0.453988194465637207 0.891007661819458008 -65.7932968139648438
0.438371807336807251 0.89879375696182251 -65.7881011962890625
0.42262190580368042 0.906306087970733643 -65.7835006713867188
0.406734168529510498 0.913546562194824219 -65.7786026000976562
0.390731692314147949 0.920504629611968994 -65.77239990234375
0.374610215425491333 0.927182376384735107 -65.765899658203125
0.358365327119827271 0.933581411838531494 -65.759002685546875
0.342020601034164429 0.939692437648773193 -65.7517013549804688
0.325571715831756592 0.945517361164093018 -65.7452011108398438
0.309014201164245605 0.95105743408203125 -65.7370986938476562
0.292372047901153564 0.956304669380187988 -65.7284011840820312
0.275640875101089478 0.961260676383972168 -65.71929931640625
0.25881609320640564 0.965926647186279297 -65.7111968994140625
0.241922125220298767 0.97029566764831543 -65.7009963989257812
0.224954485893249512 0.974369287490844727 -65.6920013427734375
0.207908570766448975 0.978148281574249268 -65.68060302734375
0.190809100866317749 0.981627166271209717 -65.6686019897460938
0.173651531338691711 0.984807133674621582 -65.6557998657226562
0.156431198120117188 0.987688839435577393 -65.6445999145507812
0.13917309045791626 0.990268051624298096 -65.630401611328125
0.121872596442699432 0.992545723915100098 -65.612701416015625
0.104525052011013031 0.994522273540496826 -65.5992965698242188
0.0871556103229522705 0.996194720268249512 -65.5842971801757812
0.0697596222162246704 0.997563838958740234 -65.5343017578125
0.0523324087262153625 0.998629748821258545 -65.2036972045898438
-3.67320512850710656e-06 -1 -66.37640380859375
0.0174554400146007538 -0.999847650527954102 -66.38580322265625
0.0348992384970188141 -0.999390840530395508 -66.3994979858398438
0.0523324087262153625 -0.998629748821258545 -66.4117965698242188
0.0697596222162246704 -0.997563838958740234 -66.4260025024414062
0.0871556103229522705 -0.996194720268249512 -66.437103271484375
0.104525052011013031 -0.994522273540496826 -66.4498977661132812
0.121872596442699432 -0.992545723915100098 -66.4617996215820312
0.13917309045791626 -0.990268051624298096 -66.4731979370117188
0.156431198120117188 -0.987688839435577393 -66.4838027954101562
0.173651531338691711 -0.984807133674621582 -66.493896484375
0.190809100866317749 -0.981627166271209717 -66.501800537109375
0.207908570766448975 -0.978148281574249268 -66.5093994140625
0.224954485893249512 -0.974369287490844727 -66.5179977416992188
0.241922125220298767 -0.97029566764831543 -66.5261001586914062
0.25881609320640564 -0.965926647186279297 -66.5313034057617188
0.275640875101089478 -0.961260676383972168 -66.5385971069335938
0.292372047901153564 -0.956304669380187988 -66.5456008911132812
0.309014201164245605 -0.95105743408203125 -66.5511016845703125
0.325571715831756592 -0.945517361164093018 -66.5562973022460938
0.342020601034164429 -0.939692437648773193 -66.5622024536132812
0.358365327119827271 -0.933581411838531494 -66.5669021606445312
0.374610215425491333 -0.927182376384735107 -66.5714035034179688
0.390731692314147949 -0.920504629611968994 -66.5764999389648438
0.406734168529510498 -0.913546562194824219 -66.582000732421875
0.42262190580368042 -0.906306087970733643 -66.5865020751953125
0.438371807336807251 -0.89879375696182251 -66.5906982421875
0.453988194465637207 -0.891007661819458008 -66.5947036743164062
0.469475209712982178 -0.882945656776428223 -66.5983963012695312
0.484810352325439453 -0.87461930513381958 -66.6019973754882812
0.499997884035110474 -0.866026639938354492 -66.60479736328125
0.515041708946228027 -0.857165098190307617 -66.6079025268554688
0.529920101165771484 -0.848047554492950439 -66.6104965209960938
0.544638752937316895 -0.838670730590820312 -66.6132965087890625
0.559193193912506104 -0.829037368297576904 -66.615997314453125
0.573576509952545166 -0.819151997566223145 -66.61810302734375
0.587785065174102783 -0.8090171217918396 -66.6204986572265625
0.601814627647399902 -0.798635780811309814 -66.622802734375
0.61566162109375 -0.788010597229003906 -66.624603271484375
0.629320323467254639 -0.777146041393280029 -66.6266021728515625
0.642787337303161621 -0.766044676303863525 -66.6283035278320312
0.65605926513671875 -0.754709362983703613 -66.6297988891601562
0.669130623340606689 -0.743144810199737549 -66.6313018798828125
0.681998193264007568 -0.731353878974914551 -66.6328964233398438
0.69465869665145874 -0.719339489936828613 -66.6342010498046875
0.707106888294219971 -0.707106649875640869 -66.6356964111328125
0.719339728355407715 -0.694658458232879639 -66.63690185546875
0.731353402137756348 -0.681998670101165771 -66.63800048828125
0.743144989013671875 -0.669130384922027588 -66.6392974853515625
0.754709601402282715 -0.656059026718139648 -66.6402969360351562
0.766044259071350098 -0.642787814140319824 -66.6416015625
0.777146220207214355 -0.629320085048675537 -66.6425018310546875
0.788010835647583008 -0.615661382675170898 -66.6436004638671875
0.798635423183441162 -0.601815164089202881 -66.6444015502929688
0.809016704559326172 -0.587785661220550537 -66.6453018188476562
0.819152176380157471 -0.573576211929321289 -66.6460037231445312
0.82903754711151123 -0.559192955493927002 -66.647003173828125
0.83867037296295166 -0.544639348983764648 -66.6475982666015625
0.848048269748687744 -0.529918968677520752 -66.6483001708984375
0.857167363166809082 -0.515038013458251953 -66.6489028930664062
34.6410102844238281 -20.0000076293945312 -66.64959716796875
34.9847984313964844 -19.3923683166503906 -66.6501007080078125
35.3179054260253906 -18.7788562774658203 -66.6507034301757812
34.7492523193359375 -17.7056331634521484 -66.6511001586914062
34.1541671752929688 -16.6581172943115234 -66.651702880859375
34.4397010803222656 -16.0594825744628906 -66.652099609375
34.7147293090820312 -15.4559917449951172 -66.652496337890625
34.9791793823242188 -14.8477926254272461 -66.6529006958007812
35.2329940795898438 -14.2350349426269531 -66.6532974243164062
34.5424766540527344 -13.2596092224121094 -66.6537017822265625
33.8289337158203125 -12.3127298355102539 -66.6541976928710938
34.0386619567871094 -11.7204685211181641 -66.6544036865234375
35.1890945434570312 -11.433619499206543 -66.6548004150390625
35.3832740783691406 -10.817753791809082 -66.6550979614257812
34.6054191589355469 -9.92295551300048828 -66.6554031372070312
34.7733345031738281 -9.31747245788574219 -66.6556015014648438
34.9306488037109375 -8.70918464660644531 -66.6558990478515625
36.0516891479492188 -8.3231964111328125 -66.6561965942382812
34.2351608276367188 -7.27692604064941406 -66.656402587890625
34.3569526672363281 -6.67830753326416016 -66.6566009521484375
34.4682693481445312 -6.07768869400024414 -66.65679931640625
35.5567779541015625 -5.63165378570556641 -66.6568984985351562
34.6593856811523438 -4.87104654312133789 -66.6570968627929688
34.7391166687011719 -4.26542520523071289 -66.6573028564453125
34.8082656860351562 -3.65850472450256348 -66.657501220703125
34.8668136596679688 -3.05045223236083984 -66.6576995849609375
35.9123039245605469 -2.51123404502868652 -66.6577987670898438
34.9520339965820312 -1.83175921440124512 -66.65789794921875
35.9780693054199219 -1.25638246536254883 -66.6580963134765625
33.9948234558105469 -0.593382060527801514 -66.658203125
35 6.3386748378347485e-14 -66.6583023071289062
34.9946708679199219 0.610834479331970215 -66.6584014892578125
34.9786796569824219 1.22148287296295166 -66.6585006713867188
33.9534034729003906 1.77942323684692383 -66.658599853515625
35.9123039245605469 2.51123404502868652 -66.6586990356445312
34.8668136596679688 3.05045223236083984 -66.6587982177734375
35.8027877807617188 3.76303339004516602 -66.6588973999023438
35.7316627502441406 4.38729476928710938 -66.65899658203125
34.6593856811523438 4.87104654312133789 -66.6591033935546875
35.5567779541015625 5.63165378570556641 -66.6591033935546875
34.4682693481445312 6.07768869400024414 -66.6592025756835938
34.3569526672363281 6.67830753326416016 -66.6593017578125
35.2133102416992188 7.48483800888061523 -66.6593017578125
35.0773200988769531 8.09824466705322266 -66.6594009399414062
34.9306488037109375 8.70918464660644531 -66.6594009399414062
34.7733345031738281 9.31747245788574219 -66.6595001220703125
34.6054191589355469 9.92295551300048828 -66.6595001220703125
35.3832740783691406 10.817753791809082 -66.6595993041992188
34.238037109375 11.1246023178100586 -66.6595993041992188
34.0386619567871094 11.7204685211181641 -66.659698486328125
33.8289337158203125 12.3127298355102539 -66.659698486328125
34.5424766540527344 13.2596092224121094 -66.659698486328125
35.2329940795898438 14.2350349426269531 -66.6597976684570312
34.0586738586425781 14.4570608139038086 -66.6597976684570312
33.8011817932128906 15.04925537109375 -66.6597976684570312
34.4397010803222656 16.0594825744628906 -66.6598968505859375
34.1541671752929688 16.6581172943115234 -66.6598968505859375
33.858245849609375 17.2516422271728516 -66.6598968505859375
35.3179054260253906 18.7788562774658203 -66.6598968505859375
34.9847984313964844 19.3923683166503906 -66.660003662109375
34.6410102844238281 20.0000076293945312 -66.660003662109375
0.857167363166809082 0.515038013458251953 -66.660003662109375
0.848048269748687744 0.529918968677520752 -66.660003662109375
0.83867037296295166 0.544639348983764648 -66.660003662109375
0.82903754711151123 0.559192955493927002 -66.6601028442382812
0.819152176380157471 0.573576211929321289 -66.6601028442382812
0.809016704559326172 0.587785661220550537 -66.6601028442382812
0.798635423183441162 0.601815164089202881 -66.6601028442382812
0.788010835647583008 0.615661382675170898 -66.6601028442382812
0.777146220207214355 0.629320085048675537 -66.6601028442382812
0.766044259071350098 0.642787814140319824 -66.6601028442382812
0.754709601402282715 0.656059026718139648 -66.6602020263671875
0.743144989013671875 0.669130384922027588 -66.6602020263671875
0.731353402137756348 0.681998670101165771 -66.6602020263671875
0.719339728355407715 0.694658458232879639 -66.6602020263671875
0.707106888294219971 0.707106649875640869 -66.6602020263671875
0.69465869665145874 0.719339489936828613 -66.6602020263671875
0.681998193264007568 0.731353878974914551 -66.6602020263671875
0.669130623340606689 0.743144810199737549 -66.6602020263671875
0.65605926513671875 0.754709362983703613 -66.6602020263671875
0.642787337303161621 0.766044676303863525 -66.6602020263671875
0.629320323467254639 0.777146041393280029 -66.6602020263671875
0.61566162109375 0.788010597229003906 -66.6603012084960938
0.601814627647399902 0.798635780811309814 -66.6603012084960938
0.587785065174102783 0.8090171217918396 -66.6603012084960938
0.573576509952545166 0.819151997566223145 -66.6603012084960938
0.559193193912506104 0.829037368297576904 -66.6603012084960938
0.544638752937316895 0.838670730590820312 -66.6603012084960938
0.529920101165771484 0.848047554492950439 -66.6603012084960938
0.515041708946228027 0.857165098190307617 -66.6603012084960938
0.499997884035110474 0.866026639938354492 -66.6603012084960938
0.484810352325439453 0.87461930513381958 -66.6603012084960938
0.469475209712982178 0.882945656776428223 -66.6603012084960938
0.453988194465637207 0.891007661819458008 -66.6603012084960938
0.438371807336807251 0.89879375696182251 -66.6603012084960938
0.42262190580368042 0.906306087970733643 -66.6603012084960938
0.406734168529510498 0.913546562194824219 -66.6603012084960938
0.390731692314147949 0.920504629611968994 -66.6603012084960938
0.374610215425491333 0.927182376384735107 -66.6603012084960938
0.358365327119827271 0.933581411838531494 -66.6603012084960938
0.342020601034164429 0.939692437648773193 -66.6603012084960938
0.325571715831756592 0.945517361164093018 -66.6603012084960938
0.309014201164245605 0.95105743408203125 -66.6603012084960938
0.292372047901153564 0.956304669380187988 -66.6603012084960938
0.275640875101089478 0.961260676383972168 -66.6603012084960938
0.25881609320640564 0.965926647186279297 -66.6603012084960938
0.241922125220298767 0.97029566764831543 -66.6603012084960938
0.224954485893249512 0.974369287490844727 -66.6603012084960938
0.207908570766448975 0.978148281574249268 -66.6603012084960938
0.190809100866317749 0.981627166271209717 -66.6603012084960938
0.173651531338691711 0.984807133674621582 -66.6603012084960938
0.156431198120117188 0.987688839435577393 -66.6603012084960938
0.13917309045791626 0.990268051624298096 -66.6603012084960938
0.121872596442699432 0.992545723915100098 -66.6603012084960938
0.104525052011013031 0.994522273540496826 -66.6603012084960938
0.0871556103229522705 0.996194720268249512 -66.6603012084960938
0.0697596222162246704 0.997563838958740234 -66.6603012084960938
0.0523324087262153625 0.998629748821258545 -66.6603012084960938
0.0348992384970188141 0.999390840530395508 -66.660400390625
-0.0174527876079082489 -0.999847710132598877 -67.5931015014648438
-3.67320512850710656e-06 -1 -67.4466018676757812
0.0174554400146007538 -0.999847650527954102 -67.4405975341796875
0.0348992384970188141 -0.999390840530395508 -67.4405975341796875
0.0523324087262153625 -0.998629748821258545 -67.4405975341796875
0.0697596222162246704 -0.997563838958740234 -67.4405975341796875
0.0871556103229522705 -0.996194720268249512 -67.4405975341796875
0.104525052011013031 -0.994522273540496826 -67.4405975341796875
0.121872596442699432 -0.992545723915100098 -67.4405975341796875
0.13917309045791626 -0.990268051624298096 -67.4405975341796875
0.156431198120117188 -0.987688839435577393 -67.4405975341796875
0.173651531338691711 -0.984807133674621582 -67.4405975341796875
0.190809100866317749 -0.981627166271209717 -67.4405975341796875
0.207908570766448975 -0.978148281574249268 -67.4405975341796875
0.224954485893249512 -0.974369287490844727 -67.4405975341796875
0.241922125220298767 -0.97029566764831543 -67.4405975341796875
0.25881609320640564 -0.965926647186279297 -67.4405975341796875
0.275640875101089478 -0.961260676383972168 -67.4405975341796875
0.292372047901153564 -0.956304669380187988 -67.4405975341796875
0.309014201164245605 -0.95105743408203125 -67.4405975341796875
0.325571715831756592 -0.945517361164093018 -67.4405975341796875
0.342020601034164429 -0.939692437648773193 -67.4405975341796875
0.358365327119827271 -0.933581411838531494 -67.4405975341796875
0.374610215425491333 -0.927182376384735107 -67.4405975341796875
0.390731692314147949 -0.920504629611968994 -67.4405975341796875
0.406734168529510498 -0.913546562194824219 -67.4405975341796875
0.42262190580368042 -0.906306087970733643 -67.4405975341796875
0.438371807336807251 -0.89879375696182251 -67.4405975341796875
0.453988194465637207 -0.891007661819458008 -67.4405975341796875
0.469475209712982178 -0.882945656776428223 -67.4405975341796875
0.484810352325439453 -0.87461930513381958 -67.4405975341796875
0.499997884035110474 -0.866026639938354492 -67.4405975341796875
0.515041708946228027 -0.857165098190307617 -67.4405975341796875
0.529920101165771484 -0.848047554492950439 -67.4404983520507812
0.544638752937316895 -0.838670730590820312 -67.4404983520507812
0.559193193912506104 -0.829037368297576904 -67.4404983520507812
0.573576509952545166 -0.819151997566223145 -67.4404983520507812
0.587785065174102783 -0.8090171217918396 -67.4404983520507812
0.601814627647399902 -0.798635780811309814 -67.4404983520507812
0.61566162109375 -0.788010597229003906 -67.4404983520507812
0.629320323467254639 -0.777146041393280029 -67.4404983520507812
0.642787337303161621 -0.766044676303863525 -67.4404983520507812
0.65605926513671875 -0.754709362983703613 -67.4404983520507812
0.669130623340606689 -0.743144810199737549 -67.4404983520507812
0.681998193264007568 -0.731353878974914551 -67.4404983520507812
0.69465869665145874 -0.719339489936828613 -67.440399169921875
0.707106888294219971 -0.707106649875640869 -67.440399169921875
0.719339728355407715 -0.694658458232879639 -67.440399169921875
0.731353402137756348 -0.681998670101165771 -67.440399169921875
0.743144989013671875 -0.669130384922027588 -67.440399169921875
0.754709601402282715 -0.656059026718139648 -67.440399169921875
0.766044259071350098 -0.642787814140319824 -67.440399169921875
0 -0 -67.4402999877929688
0.788010835647583008 -0.615661382675170898 -67.4402999877929688
0.798635423183441162 -0.601815164089202881 -67.4402999877929688
0.809016704559326172 -0.587785661220550537 -67.4402999877929688
0.819152176380157471 -0.573576211929321289 -67.4402999877929688
0.82903754711151123 -0.559192955493927002 -67.4402999877929688
0.83867037296295166 -0.544639348983764648 -67.4402008056640625
0.848048269748687744 -0.529918968677520752 -67.4402008056640625
0.857167363166809082 -0.515038013458251953 -67.4402008056640625
34.6410102844238281 -20.0000076293945312 -67.4401016235351562
34.9847984313964844 -19.3923683166503906 -67.4401016235351562
34.4349594116210938 -18.3093852996826172 -67.4401016235351562
33.858245849609375 -17.2516422271728516 -67.4401016235351562
35.0529594421386719 -17.0964889526367188 -67.44000244140625
35.34600830078125 -16.4821014404296875 -67.44000244140625
34.7147293090820312 -15.4559917449951172 -67.44000244140625
35.8996849060058594 -15.2385234832763672 -67.4399032592773438
34.3058090209960938 -13.8604288101196289 -67.4399032592773438
35.4760589599609375 -13.6179771423339844 -67.4397964477539062
33.8289337158203125 -12.3127298355102539 -67.4397964477539062
34.9841804504394531 -12.0460367202758789 -67.439697265625
34.238037109375 -11.1246023178100586 -67.439697265625
34.426971435546875 -10.5253820419311523 -67.4395980834960938
35.566680908203125 -10.1985931396484375 -67.4394989013671875
33.8074073791503906 -9.05865383148193359 -67.4394989013671875
35.9009437561035156 -8.95110702514648438 -67.4393997192382812
36.0516891479492188 -8.3231964111328125 -67.4393997192382812
34.2351608276367188 -7.27692604064941406 -67.439300537109375
34.3569526672363281 -6.67830753326416016 -67.4392013549804688
35.4530792236328125 -6.25133705139160156 -67.4391021728515625
34.569091796875 -5.47521877288818359 -67.4390029907226562
35.6496505737304688 -5.01021957397460938 -67.43890380859375
35.7316627502441406 -4.38729476928710938 -67.4387969970703125
34.8082656860351562 -3.65850472450256348 -67.4386978149414062
33.8706207275390625 -2.96329641342163086 -67.4385986328125
34.9147415161132812 -2.44147753715515137 -67.4384994506835938
34.9520339965820312 -1.83175921440124512 -67.4384002685546875
34.9786796569824219 -1.22148287296295166 -67.438201904296875
33.9948234558105469 -0.593382060527801514 -67.4381027221679688
35 6.09581016306620649e-14 -67.4380035400390625
35.9945182800292969 0.628286898136138916 -67.4377975463867188
34.9786796569824219 1.22148287296295166 -67.4375991821289062
34.9520339965820312 1.83175921440124512 -67.4375
35.9123039245605469 2.51123404502868652 -67.4373016357421875
34.8668136596679688 3.05045223236083984 -67.437103271484375
33.8137435913085938 3.55397605895996094 -67.4368972778320312
34.7391166687011719 4.26542520523071289 -67.436798095703125
34.6593856811523438 4.87104654312133789 -67.4365005493164062
35.5567779541015625 5.63165378570556641 -67.4363021850585938
35.4530792236328125 6.25133705139160156 -67.43609619140625
34.3569526672363281 6.67830753326416016 -67.4357986450195312
34.2351608276367188 7.27692604064941406 -67.4355010986328125
34.1029510498046875 7.87329339981079102 -67.435302734375
35.9009437561035156 8.95110702514648438 -67.4348983764648438
34.7733345031738281 9.31747245788574219 -67.4347000122070312
35.566680908203125 10.1985931396484375 -67.4343032836914062
34.426971435546875 10.5253820419311523 -67.43389892578125
34.238037109375 11.1246023178100586 -67.4336013793945312
34.9841804504394531 12.0460367202758789 -67.4330978393554688
33.8289337158203125 12.3127298355102539 -67.4327011108398438
35.4760589599609375 13.6179771423339844 -67.4322967529296875
34.3058090209960938 13.8604288101196289 -67.4318008422851562
35.8996849060058594 15.2385234832763672 -67.4312973022460938
35.6282730102539062 15.8627281188964844 -67.4308013916015625
35.34600830078125 16.4821014404296875 -67.4301986694335938
34.1541671752929688 16.6581172943115234 -67.4296035766601562
33.858245849609375 17.2516422271728516 -67.4290008544921875
34.4349594116210938 18.3093852996826172 -67.4283981323242188
34.1101760864257812 18.9075584411621094 -67.4278030395507812
34.6410102844238281 20.0000076293945312 -67.4271011352539062
0.857167363166809082 0.515038013458251953 -67.426300048828125
0.848048269748687744 0.529918968677520752 -67.42559814453125
0.83867037296295166 0.544639348983764648 -67.4247970581054688
0.82903754711151123 0.559192955493927002 -67.423797607421875
0.819152176380157471 0.573576211929321289 -67.4229965209960938
0.809016704559326172 0.587785661220550537 -67.4218978881835938
0.798635423183441162 0.601815164089202881 -67.4209976196289062
0.788010835647583008 0.615661382675170898 -67.4197998046875
0.777146220207214355 0.629320085048675537 -67.4185028076171875
0.766044259071350098 0.642787814140319824 -67.4173965454101562
0.754709601402282715 0.656059026718139648 -67.415802001953125
0.743144989013671875 0.669130384922027588 -67.4144973754882812
0.731353402137756348 0.681998670101165771 -67.41290283203125
0.719339728355407715 0.694658458232879639 -67.4114990234375
0.707106888294219971 0.707106649875640869 -67.4097976684570312
0.69465869665145874 0.719339489936828613 -67.40789794921875
0.681998193264007568 0.731353878974914551 -67.4058990478515625
0.669130623340606689 0.743144810199737549 -67.4038009643554688
0.65605926513671875 0.754709362983703613 -67.4020004272460938
0.642787337303161621 0.766044676303863525 -67.39959716796875
0.629320323467254639 0.777146041393280029 -67.3974990844726562
0.61566162109375 0.788010597229003906 -67.3948974609375
0.601814627647399902 0.798635780811309814 -67.3921966552734375
0.587785065174102783 0.8090171217918396 -67.3891983032226562
0.573576509952545166 0.819151997566223145 -67.3865966796875
0.559193193912506104 0.829037368297576904 -67.3833999633789062
0.544638752937316895 0.838670730590820312 -67.3798980712890625
0.529920101165771484 0.848047554492950439 -67.376800537109375
0.515041708946228027 0.857165098190307617 -67.3730010986328125
0.499997884035110474 0.866026639938354492 -67.368896484375
0.484810352325439453 0.87461930513381958 -67.364501953125
0.469475209712982178 0.882945656776428223 -67.3607025146484375
0.453988194465637207 0.891007661819458008 -67.3566970825195312
0.438371807336807251 0.89879375696182251 -67.3516006469726562
0.42262190580368042 0.906306087970733643 -67.347198486328125
0.406734168529510498 0.913546562194824219 -67.3414993286132812
0.390731692314147949 0.920504629611968994 -67.3355026245117188
0.374610215425491333 0.927182376384735107 -67.3302001953125
0.358365327119827271 0.933581411838531494 -67.3235015869140625
0.342020601034164429 0.939692437648773193 -67.3177032470703125
0.325571715831756592 0.945517361164093018 -67.3102035522460938
0.309014201164245605 0.95105743408203125 -67.3037033081054688
0.292372047901153564 0.956304669380187988 -67.2967987060546875
0.275640875101089478 0.961260676383972168 -67.2881011962890625
0.25881609320640564 0.965926647186279297 -67.278900146484375
0.241922125220298767 0.97029566764831543 -67.2690963745117188
0.224954485893249512 0.974369287490844727 -67.258697509765625
0.207908570766448975 0.978148281574249268 -67.249603271484375
0.190809100866317749 0.981627166271209717 -67.23809814453125
0.173651531338691711 0.984807133674621582 -67.2258987426757812
0.156431198120117188 0.987688839435577393 -67.2151031494140625
0.13917309045791626 0.990268051624298096 -67.20379638671875
0.121872596442699432 0.992545723915100098 -67.1894989013671875
0.104525052011013031 0.994522273540496826 -67.1771011352539062
0.0871556103229522705 0.996194720268249512 -67.1610031127929688
0.0697596222162246704 0.997563838958740234 -67.1411972045898438
0.0523324087262153625 0.998629748821258545 -66.8647994995117188
-3.67320512850710656e-06 -1 -67.8980026245117188
0.0174554400146007538 -0.999847650527954102 -67.93890380859375
0.0348992384970188141 -0.999390840530395508 -67.9534988403320312
0.0523324087262153625 -0.998629748821258545 -67.9662017822265625
0.0697596222162246704 -0.997563838958740234 -67.9758987426757812
0.0871556103229522705 -0.996194720268249512 -67.989898681640625
0.104525052011013031 -0.994522273540496826 -68.0009002685546875
0.121872596442699432 -0.992545723915100098 -68.0113983154296875
0.13917309045791626 -0.990268051624298096 -68.0214004516601562
0.156431198120117188 -0.987688839435577393 -68.0327987670898438
0.173651531338691711 -0.984807133674621582 -68.0435028076171875
0.190809100866317749 -0.981627166271209717 -68.0519027709960938
0.207908570766448975 -0.978148281574249268 -68.05999755859375
0.224954485893249512 -0.974369287490844727 -68.0691986083984375
0.241922125220298767 -0.97029566764831543 -68.0792007446289062
0.25881609320640564 -0.965926647186279297 -68.08599853515625
0.275640875101089478 -0.961260676383972168 -68.0936965942382812
0.292372047901153564 -0.956304669380187988 -68.1008987426757812
0.309014201164245605 -0.95105743408203125 -68.1078033447265625
0.325571715831756592 -0.945517361164093018 -68.1131973266601562
0.342020601034164429 -0.939692437648773193 -68.1193008422851562
0.358365327119827271 -0.933581411838531494 -68.1250991821289062
0.374610215425491333 -0.927182376384735107 -68.1305999755859375
0.390731692314147949 -0.920504629611968994 -68.1349029541015625
0.406734168529510498 -0.913546562194824219 -68.1406021118164062
0.42262190580368042 -0.906306087970733643 -68.144500732421875
0.438371807336807251 -0.89879375696182251 -68.148101806640625
0.453988194465637207 -0.891007661819458008 -68.1516036987304688
0.469475209712982178 -0.882945656776428223 -68.1556015014648438
0.484810352325439453 -0.87461930513381958 -68.1586990356445312
0.499997884035110474 -0.866026639938354492 -68.162200927734375
0.515041708946228027 -0.857165098190307617 -68.1650009155273438
0.529920101165771484 -0.848047554492950439 -68.1681976318359375
0.544638752937316895 -0.838670730590820312 -68.17120361328125
0.559193193912506104 -0.829037368297576904 -68.1735992431640625
0.573576509952545166 -0.819151997566223145 -68.1759033203125
0.587785065174102783 -0.8090171217918396 -68.178497314453125
0.601814627647399902 -0.798635780811309814 -68.1804962158203125
0.61566162109375 -0.788010597229003906 -68.18280029296875
0.629320323467254639 -0.777146041393280029 -68.184600830078125
0.642787337303161621 -0.766044676303863525 -68.1866989135742188
0.65605926513671875 -0.754709362983703613 -68.1885986328125
0.669130623340606689 -0.743144810199737549 -68.1902008056640625
0.681998193264007568 -0.731353878974914551 -68.1917037963867188
0.69465869665145874 -0.719339489936828613 -68.1930999755859375
0.707106888294219971 -0.707106649875640869 -68.19439697265625
0.719339728355407715 -0.694658458232879639 -68.1958999633789062
0.731353402137756348 -0.681998670101165771 -68.1970977783203125
0.743144989013671875 -0.669130384922027588 -68.1981964111328125
0.754709601402282715 -0.656059026718139648 -68.1995010375976562
0.766044259071350098 -0.642787814140319824 -68.2007980346679688
0.777146220207214355 -0.629320085048675537 -68.2016983032226562
0.788010835647583008 -0.615661382675170898 -68.2027969360351562
0.798635423183441162 -0.601815164089202881 -68.2039031982421875
0.809016704559326172 -0.587785661220550537 -68.204803466796875
0.819152176380157471 -0.573576211929321289 -68.2058029174804688
0.82903754711151123 -0.559192955493927002 -68.2065963745117188
0.83867037296295166 -0.544639348983764648 -68.2073974609375
0.848048269748687744 -0.529918968677520752 -68.2082977294921875
0.857167363166809082 -0.515038013458251953 -68.2089004516601562
34.6410102844238281 -20.0000076293945312 -68.2097015380859375
34.1101760864257812 -18.9075584411621094 -68.210296630859375
34.4349594116210938 -18.3093852996826172 -68.2108001708984375
34.7492523193359375 -17.7056331634521484 -68.2113037109375
35.0529594421386719 -17.0964889526367188 -68.211700439453125
34.4397010803222656 -16.0594825744628906 -68.2121963500976562
33.8011817932128906 -15.04925537109375 -68.2126998901367188
34.0586738586425781 -14.4570608139038086 -68.2130966186523438
35.2329940795898438 -14.2350349426269531 -68.2136001586914062
34.5424766540527344 -13.2596092224121094 -68.2139968872070312
35.7083168029785156 -12.9967708587646484 -68.2143020629882812
34.9841804504394531 -12.0460367202758789 -68.2146987915039062
35.1890945434570312 -11.433619499206543 -68.214996337890625
35.3832740783691406 -10.817753791809082 -68.2154006958007812
35.566680908203125 -10.1985931396484375 -68.2156982421875
35.7392578125 -9.57629108428955078 -68.21600341796875
35.9009437561035156 -8.95110702514648438 -68.2162017822265625
35.0773200988769531 -8.09824466705322266 -68.2164993286132812
34.2351608276367188 -7.27692604064941406 -68.2166976928710938
34.3569526672363281 -6.67830753326416016 -68.2169036865234375
34.4682693481445312 -6.07768869400024414 -68.2172012329101562
34.569091796875 -5.47521877288818359 -68.2173995971679688
34.6593856811523438 -4.87104654312133789 -68.217498779296875
34.7391166687011719 -4.26542520523071289 -68.2176971435546875
35.8027877807617188 -3.76303339004516602 -68.2179031372070312
35.8630104064941406 -3.13760805130004883 -68.2180023193359375
35.9123039245605469 -2.51123404502868652 -68.21820068359375
34.9520339965820312 -1.83175921440124512 -68.2182998657226562
33.9792861938476562 -1.18658339977264404 -68.2184982299804688
35.9945182800292969 -0.628286898136138916 -68.218597412109375
35 6.3386748378347485e-14 -68.2186965942382812
35.9945182800292969 0.628286898136138916 -68.218902587890625
35.9780693054199219 1.25638246536254883 -68.2190017700195312
34.9520339965820312 1.83175921440124512 -68.2191009521484375
35.9123039245605469 2.51123404502868652 -68.2192001342773438
34.8668136596679688 3.05045223236083984 -68.21929931640625
34.8082656860351562 3.65850472450256348 -68.2193984985351562
34.7391166687011719 4.26542520523071289 -68.2193984985351562
34.6593856811523438 4.87104654312133789 -68.2194976806640625
34.569091796875 5.47521877288818359 -68.2195968627929688
34.4682693481445312 6.07768869400024414 -68.2197036743164062
35.3385810852050781 6.86911630630493164 -68.2197036743164062
34.2351608276367188 7.27692604064941406 -68.2198028564453125
36.0516891479492188 8.3231964111328125 -68.2198028564453125
34.9306488037109375 8.70918464660644531 -68.2199020385742188
34.7733345031738281 9.31747245788574219 -68.220001220703125
35.566680908203125 10.1985931396484375 -68.220001220703125
34.426971435546875 10.5253820419311523 -68.2201004028320312
35.1890945434570312 11.433619499206543 -68.2201004028320312
34.9841804504394531 12.0460367202758789 -68.2201995849609375
35.7083168029785156 12.9967708587646484 -68.2201995849609375
34.5424766540527344 13.2596092224121094 -68.2201995849609375
35.2329940795898438 14.2350349426269531 -68.2202987670898438
35.8996849060058594 15.2385234832763672 -68.2202987670898438
33.8011817932128906 15.04925537109375 -68.2202987670898438
34.4397010803222656 16.0594825744628906 -68.22039794921875
34.1541671752929688 16.6581172943115234 -68.22039794921875
34.7492523193359375 17.7056331634521484 -68.22039794921875
35.3179054260253906 18.7788562774658203 -68.2204971313476562
34.1101760864257812 18.9075584411621094 -68.2204971313476562
34.6410102844238281 20.0000076293945312 -68.2204971313476562
0 0 -68.2204971313476562
0.848048269748687744 0.529918968677520752 -68.2204971313476562
0.83867037296295166 0.544639348983764648 -68.2205963134765625
0.82903754711151123 0.559192955493927002 -68.2205963134765625
0.819152176380157471 0.573576211929321289 -68.2205963134765625
