ply
format ascii 1.0
element vertex 776
property float x
property float y
property float z
end_header
34.62744140625 -12.0610313415527344 -76.1876068115234375
34.629669189453125 -11.4633970260620117 -76.1832656860351562
34.6051445007324219 -10.7747135162353516 -76.2606887817382812
34.8573036193847656 -9.93755531311035156 -76.2113113403320312
34.8925209045410156 -8.95197105407714844 -76.1590499877929688
34.7864990234375 -8.43343067169189453 -76.1687240600585938
34.6926803588867188 -8.40982627868652344 -76.462432861328125
34.5567741394042969 -7.27373075485229492 -76.1948318481445312
34.5685768127441406 -6.68884134292602539 -76.2069473266601562
34.6275978088378906 -6.09227085113525391 -76.2094268798828125
34.7886810302734375 -5.5248255729675293 -76.2076263427734375
34.9445648193359375 -4.9268498420715332 -76.212249755859375
35.1656036376953125 -4.2910609245300293 -76.2040328979492188
35.1621665954589844 -3.65909910202026367 -76.2059478759765625
35.1662254333496094 -3.00861597061157227 -76.2093887329101562
34.986907958984375 -2.57307839393615723 -76.1667251586914062
34.8821640014648438 -1.83938992023468018 -76.2157669067382812
34.7684135437011719 -1.2400519847869873 -76.0541534423828125
34.8166465759277344 -0.593250870704650879 -76.2054672241210938
34.8109703063964844 0.0155570795759558678 -76.209075927734375
34.9192314147949219 0.62138521671295166 -76.218658447265625
34.980560302734375 1.2214512825012207 -76.2211380004882812
35.2111320495605469 1.70471787452697754 -76.3097152709960938
35.06451416015625 2.4605860710144043 -76.1943359375
35.1311531066894531 3.09075045585632324 -76.206024169921875
35.1914176940917969 3.67081475257873535 -76.2272415161132812
35.1362037658691406 4.26965522766113281 -76.2646865844726562
34.8711013793945312 4.84886741638183594 -76.21002197265625
34.7172508239746094 5.51135492324829102 -76.218841552734375
34.7380142211914062 6.09437894821166992 -76.2146072387695312
34.7141571044921875 6.66069698333740234 -76.2049331665039062
34.7890281677246094 7.23679733276367188 -76.1968307495117188
34.9178314208984375 8.110626220703125 -76.22161865234375
35.04449462890625 8.96770954132080078 -76.2331085205078125
35.011962890625 9.50557613372802734 -76.2034835815429688
35.0248184204101562 9.96653938293457031 -76.209320068359375
34.7034187316894531 10.7298955917358398 -76.2743301391601562
34.5731697082519531 11.3819541931152344 -76.25823974609375
34.510955810546875 12.0342330932617188 -76.2996673583984375
34.6274642944335938 12.3305931091308594 -76.1116790771484375
34.5802803039550781 13.2596111297607422 -76.2160720825195312
34.5541915893554688 13.8547191619873047 -76.1946945190429688
34.4840049743652344 14.4292020797729492 -76.169952392578125
34.5759658813476562 14.9975404739379883 -76.1530227661132812
34.7481269836425781 16.0247516632080078 -76.2343368530273438
35.0648002624511719 17.6095733642578125 -76.2198333740234375
35.1639976501464844 18.1307506561279297 -76.221710205078125
35.20355224609375 18.3550395965576172 -76.1802902221679688
35.0453300476074219 19.0295772552490234 -76.1137847900390625
34.4337043762207031 19.8922901153564453 -76.2717056274414062
35.21624755859375 -19.8499259948730469 -77.0125579833984375
35.0233039855957031 -19.3824253082275391 -77.0045318603515625
34.8314552307128906 -18.8569622039794922 -76.9892959594726562
34.7613945007324219 -17.2009735107421875 -76.9829254150390625
34.6558418273925781 -17.1067409515380859 -76.9956283569335938
34.6367835998535156 -16.0612030029296875 -77.009979248046875
34.7943992614746094 -15.0516672134399414 -77.0941009521484375
34.6655960083007812 -15.2265510559082031 -76.9552993774414062
34.7644119262695312 -13.8547172546386719 -77.058685302734375
34.6372795104980469 -13.6138439178466797 -76.93951416015625
34.7489776611328125 -12.3463373184204102 -77.0187301635742188
34.6028175354003906 -12.0442037582397461 -77.0135040283203125
34.7712478637695312 -11.1156949996948242 -76.9695281982421875
34.8454704284667969 -10.5697689056396484 -76.9646530151367188
34.8423347473144531 -10.0687780380249023 -77.0720291137695312
34.9211921691894531 -9.55692768096923828 -77.0337600708007812
34.9461326599121094 -8.97329139709472656 -77.1273345947265625
34.8654060363769531 -8.39885902404785156 -77.2142715454101562
34.7307090759277344 -7.26006698608398438 -76.9365768432617188
34.7568473815917969 -6.69948148727416992 -76.9584884643554688
34.6774139404296875 -6.21388053894042969 -77.1052322387695312
34.8814010620117188 -5.57822895050048828 -77.0905990600585938
35.0671157836914062 -4.90355539321899414 -77.0758819580078125
35.1122970581054688 -4.34859275817871094 -77.045501708984375
35.0997200012207031 -3.72450637817382812 -77.0190963745117188
35.0767021179199219 -3.02611494064331055 -77.0097808837890625
34.9909286499023438 -2.42862343788146973 -77.0053176879882812
34.8101348876953125 -1.84632444381713867 -76.9933929443359375
34.7795257568359375 -1.13443672657012939 -77.0754241943359375
34.7990455627441406 -0.555856645107269287 -77.0906753540039062
34.8411407470703125 -0.00818330049514770508 -77.0297012329101562
34.9336585998535156 0.571357071399688721 -77.0855636596679688
34.8689804077148438 1.34418928623199463 -76.8564834594726562
35.0343017578125 1.64861249923706055 -77.0064239501953125
35.1128807067871094 2.28271245956420898 -77.097198486328125
34.9482421875 3.06719279289245605 -76.9270706176757812
34.9490127563476562 3.66352701187133789 -77.0002365112304688
34.9536933898925781 4.27644968032836914 -76.9964523315429688
34.9298515319824219 4.88621950149536133 -77.0079269409179688
34.7603797912597656 5.49021005630493164 -77.000518798828125
34.6750640869140625 6.30346155166625977 -77.0663528442382812
34.773345947265625 6.66071748733520508 -76.975433349609375
34.8160972595214844 7.23235464096069336 -76.989501953125
35.0214195251464844 8.10309410095214844 -77.00323486328125
35.1704330444335938 8.70336627960205078 -76.96875
35.0298500061035156 9.50489711761474609 -77.0678558349609375
35.0094566345214844 9.98165035247802734 -76.9868545532226562
34.8318748474121094 10.5891885757446289 -76.9979324340820312
34.7060813903808594 11.1609916687011719 -76.96429443359375
34.7098884582519531 12.0516328811645508 -77.0233535766601562
34.819854736328125 12.6532983779907227 -76.9865951538085938
34.912078857421875 13.6043100357055664 -77.11358642578125
34.7290878295898438 14.2021656036376953 -77.08447265625
34.6776046752929688 14.858088493347168 -77.0238571166992188
34.6789894104003906 15.0760421752929688 -76.9594650268554688
34.7868118286132812 16.0343551635742188 -76.98828125
34.9413490295410156 17.5569229125976562 -76.9194107055664062
35.0450592041015625 17.6726303100585938 -76.9939041137695312
35.0921592712402344 18.257843017578125 -76.976470947265625
34.6637420654296875 19.5177593231201172 -77.0401153564453125
34.906646728515625 19.5347480773925781 -76.9859771728515625
35.051177978515625 -19.3585853576660156 -78.0104141235351562
34.9664192199707031 -19.4719066619873047 -77.7621841430664062
34.8488311767578125 -18.3026847839355469 -77.8797836303710938
34.7865676879882812 -17.2572307586669922 -77.8490219116210938
34.6871147155761719 -17.5147266387939453 -77.985626220703125
34.6705131530761719 -16.0381240844726562 -77.8631134033203125
34.6356086730957031 -15.0709571838378906 -77.9232864379882812
34.4860191345214844 -15.2992267608642578 -77.8737335205078125
34.61761474609375 -13.8593244552612305 -77.873291015625
34.7424049377441406 -13.2561225891113281 -77.8855438232421875
34.7071990966796875 -12.6533298492431641 -77.8755416870117188
34.6462364196777344 -11.779210090637207 -77.8708038330078125
34.6176338195800781 -11.3571643829345703 -77.9147186279296875
34.8493270874023438 -10.5604219436645508 -77.8101043701171875
35.077667236328125 -9.92581748962402344 -77.8353118896484375
35.129058837890625 -9.31029224395751953 -77.8400344848632812
35.1416664123535156 -8.4624481201171875 -77.7936477661132812
35.0302085876464844 -7.82736492156982422 -77.8423004150390625
34.87567138671875 -7.24408960342407227 -77.8588180541992188
34.7806282043457031 -6.88788175582885742 -77.9115066528320312
34.9495773315429688 -6.17999076843261719 -77.8323211669921875
35.0871696472167969 -5.57342529296875 -77.8222885131835938
35.1765632629394531 -4.90430927276611328 -77.81903076171875
35.1802597045898438 -4.2588963508605957 -77.855712890625
35.1222190856933594 -3.81350255012512207 -77.910736083984375
34.9978103637695312 -3.02947497367858887 -77.8799514770507812
34.8468513488769531 -2.45159506797790527 -77.8801651000976562
34.7852821350097656 -1.85237157344818115 -77.8718643188476562
34.7176589965820312 -1.16825056076049805 -77.8934707641601562
34.663421630859375 -0.567773699760437012 -77.8867568969726562
34.7779655456542969 0.00100830534938722849 -77.9007492065429688
34.8891143798828125 0.609391331672668457 -77.8818893432617188
34.8303718566894531 1.3136061429977417 -77.9251708984375
34.8623580932617188 1.94794821739196777 -77.9333724975585938
34.9783706665039062 2.32243490219116211 -77.9267654418945312
34.8888397216796875 3.01214313507080078 -77.9095077514648438
34.6865692138671875 3.77322673797607422 -77.8834609985351562
34.9225692749023438 4.25753355026245117 -77.8633270263671875
34.960662841796875 4.88438510894775391 -77.8362808227539062
34.9379081726074219 5.50199365615844727 -77.8386459350585938
34.7906074523925781 6.26635885238647461 -77.9457931518554688
34.7921714782714844 6.66485023498535156 -77.8454513549804688
34.8677139282226562 7.53791666030883789 -77.9057159423828125
35.1039047241210938 8.09600734710693359 -77.8825912475585938
35.1036224365234375 8.93656539916992188 -77.94189453125
35.1748580932617188 9.32246780395507812 -77.8800506591796875
34.73675537109375 10.0731134414672852 -77.9081344604492188
34.7459716796875 10.57232666015625 -77.879150390625
34.6905670166015625 11.1417303085327148 -77.8614654541015625
34.8702545166015625 12.0576305389404297 -77.8950271606445312
35.0691413879394531 13.0160751342773438 -77.957672119140625
35.1605873107910156 13.260197639465332 -77.808807373046875
34.9556045532226562 14.2148618698120117 -77.9126663208007812
34.7901039123535156 14.8277616500854492 -77.8997039794921875
34.6512489318847656 15.4566850662231445 -77.8840789794921875
34.7842178344726562 16.5367355346679688 -77.8735809326171875
34.9391365051269531 17.1008777618408203 -77.8787078857421875
35.0058708190917969 18.2080097198486328 -77.8643264770507812
34.9474754333496094 18.8060817718505859 -77.873138427734375
34.9059371948242188 19.3947372436523438 -77.8803558349609375
35.0738754272460938 19.9387378692626953 -77.876495361328125
34.9320487976074219 -19.9822216033935547 -78.77471923828125
34.6724052429199219 -19.4341697692871094 -78.673065185546875
34.7075691223144531 -18.7585430145263672 -78.7873077392578125
34.9749107360839844 -17.2087039947509766 -78.70379638671875
34.9353065490722656 -17.1005573272705078 -78.762603759765625
34.8693389892578125 -16.5659751892089844 -78.7795639038085938
34.5780715942382812 -15.0912103652954102 -78.7457275390625
34.4597015380859375 -14.8431205749511719 -78.75970458984375
34.6619949340820312 -13.8437919616699219 -78.7789688110351562
34.7590293884277344 -13.2528657913208008 -78.769073486328125
34.6978645324707031 -12.9868335723876953 -78.7215042114257812
34.757415771484375 -12.0217933654785156 -78.76275634765625
34.876922607421875 -11.1863842010498047 -78.7842559814453125
34.9244537353515625 -10.5523014068603516 -78.7855072021484375
34.8829002380371094 -10.1871051788330078 -78.74945068359375
34.9963188171386719 -9.55657386779785156 -78.7302017211914062
35.0574989318847656 -8.95591068267822266 -78.6716995239257812
34.9921340942382812 -8.47976493835449219 -78.6072006225585938
34.7861442565917969 -7.52082014083862305 -78.7145233154296875
34.7568588256835938 -6.84097099304199219 -78.7580718994140625
34.9325180053710938 -6.15339565277099609 -78.760894775390625
35.1725997924804688 -5.60381841659545898 -78.726898193359375
35.2633514404296875 -4.99835968017578125 -78.7848739624023438
35.2154006958007812 -4.43976640701293945 -78.7673492431640625
35.1313133239746094 -3.62662839889526367 -78.7677078247070312
34.9391822814941406 -2.75066590309143066 -78.7890777587890625
34.7591400146484375 -2.47460055351257324 -78.7633895874023438
34.5822868347167969 -1.85723519325256348 -78.7798233032226562
34.7528800964355469 -1.25082051753997803 -78.7074432373046875
34.7726287841796875 -0.571225464344024658 -78.7799758911132812
35.1083984375 0.00999017339199781418 -78.6938552856445312
35.0737190246582031 0.731183409690856934 -78.9172592163085938
35.0173454284667969 1.24617397785186768 -78.9629745483398438
35.0943336486816406 1.62610805034637451 -78.6551055908203125
34.8969917297363281 2.42332673072814941 -78.8930435180664062
34.9488601684570312 2.85792160034179688 -78.5510482788085938
34.937103271484375 3.6488344669342041 -78.7489852905273438
35.0471839904785156 4.25942420959472656 -78.743316650390625
35.1481437683105469 4.89610815048217773 -78.7426528930664062
34.9888381958007812 5.59488105773925781 -78.805938720703125
34.8589973449707031 6.26330423355102539 -78.8172225952148438
34.9419212341308594 6.66050338745117188 -78.729644775390625
34.9625663757324219 7.24450111389160156 -78.7018814086914062
35.1201210021972656 8.33127593994140625 -78.7368011474609375
35.298370361328125 8.70794963836669922 -78.777587890625
35.1926116943359375 9.32455825805664062 -78.7731475830078125
34.9241905212402344 9.9729766845703125 -78.771392822265625
34.6248054504394531 10.5557775497436523 -78.7618179321289062
34.5892219543457031 11.4606027603149414 -78.7469329833984375
34.7401504516601562 11.6402778625488281 -78.73907470703125
35.1573486328125 13.0338907241821289 -78.7559585571289062
35.1307945251464844 13.6290712356567383 -78.7774505615234375
35.0253829956054688 14.2168102264404297 -78.7733993530273438
34.6605606079101562 15.1103887557983398 -78.7499160766601562
34.7563438415527344 15.25225830078125 -78.662933349609375
34.7284927368164062 16.0557632446289062 -78.757537841796875
34.8091812133789062 16.6041812896728516 -78.8008193969726562
34.9997596740722656 17.184722900390625 -78.8024520874023438
35.0333023071289062 18.2279567718505859 -78.7958908081054688
35.1058769226074219 19.7739582061767578 -78.7562332153320312
35.3127975463867188 19.8641681671142578 -78.7139892578125
34.7466773986816406 -19.2590694427490234 -79.672027587890625
34.6742477416992188 -19.3722171783447266 -79.6090011596679688
34.8316078186035156 -18.2978343963623047 -79.6663665771484375
34.9034996032714844 -17.7014751434326172 -79.6337814331054688
34.8497352600097656 -17.5401535034179688 -79.5879974365234375
34.8914756774902344 -16.5088176727294922 -79.6216964721679688
34.6465721130371094 -15.4581384658813477 -79.63848876953125
34.5931549072265625 -14.4458141326904297 -79.5952301025390625
34.6632881164550781 -13.8352870941162109 -79.6241226196289062
34.7368888854980469 -13.2525606155395508 -79.6386337280273438
34.6541709899902344 -12.9411916732788086 -79.5929107666015625
34.7259101867675781 -12.2734622955322266 -79.5934066772460938
34.8809127807617188 -11.1911659240722656 -79.6800765991210938
34.9477462768554688 -10.5611209869384766 -79.665069580078125
34.9127349853515625 -10.1738948822021484 -79.5801544189453125
35.0614509582519531 -9.30968952178955078 -79.6600189208984375
34.9155731201171875 -8.71009540557861328 -79.6377487182617188
34.763824462890625 -7.81970405578613281 -79.5992584228515625
34.6484832763671875 -7.289947509765625 -79.60504150390625
34.6827964782714844 -6.80405855178833008 -79.663299560546875
34.9599380493164062 -6.18501186370849609 -79.635284423828125
35.2468338012695312 -5.555999755859375 -79.6694869995117188
35.2796821594238281 -5.01365566253662109 -79.6066665649414062
35.269500732421875 -4.41699123382568359 -79.606414794921875
35.1068344116210938 -3.79024815559387207 -79.6259384155273438
34.9491806030273438 -2.74328231811523438 -79.6454849243164062
34.8282966613769531 -2.45547318458557129 -79.6464385986328125
34.6888465881347656 -1.82804274559020996 -79.6705398559570312
34.8828544616699219 -1.10979151725769043 -79.8943328857421875
35.0083160400390625 -0.503656923770904541 -79.774139404296875
35.2927131652832031 0.036530863493680954 -79.491424560546875
35.0797538757324219 0.754430532455444336 -79.6581649780273438
35.2061004638671875 1.21955716609954834 -79.6256256103515625
35.2069854736328125 1.82366359233856201 -79.636505126953125
35.2716827392578125 2.27251124382019043 -79.5329055786132812
35.0894851684570312 3.08994388580322266 -79.6801605224609375
35.2277412414550781 3.7905275821685791 -79.700958251953125
35.3676795959472656 4.24205589294433594 -79.56719970703125
35.2665977478027344 4.93064260482788086 -79.6646347045898438
35.0286483764648438 5.61497640609741211 -79.6696319580078125
34.9958724975585938 6.27837705612182617 -79.6578826904296875
35.0297889709472656 6.68782377243041992 -79.637969970703125
35.0243415832519531 7.29084968566894531 -79.6496963500976562
35.0517158508300781 8.29883575439453125 -79.597381591796875
35.1641807556152344 8.94060707092285156 -79.591552734375
35.1267356872558594 9.50073719024658203 -79.6170883178710938
34.9871673583984375 9.96781349182128906 -79.6498947143554688
34.6231803894042969 10.5563087463378906 -79.6428756713867188
34.7121696472167969 11.0749454498291016 -79.6382293701171875
34.8564262390136719 12.0544404983520508 -79.6437225341796875
35.0593757629394531 12.6339817047119141 -79.6519317626953125
35.0595207214355469 13.6320285797119141 -79.6284942626953125
34.9997940063476562 14.2244291305541992 -79.6277542114257812
34.9985389709472656 14.5642967224121094 -79.6970062255859375
34.787017822265625 15.2174692153930664 -79.6924209594726562
34.6136970520019531 16.4444713592529297 -79.5975723266601562
34.7011299133300781 17.6002216339111328 -79.51202392578125
34.8007049560546875 17.7005176544189453 -79.6475830078125
34.9420661926269531 18.8306846618652344 -79.6007156372070312
35.0906715393066406 19.9020214080810547 -79.5256118774414062
35.207061767578125 19.8944091796875 -79.6704254150390625
34.7288932800292969 -19.3582820892333984 -80.4102325439453125
34.6896171569824219 -18.9189491271972656 -80.4731521606445312
34.7846527099609375 -18.3187751770019531 -80.4427337646484375
34.8024864196777344 -17.7080192565917969 -80.430145263671875
34.7752151489257812 -17.5670719146728516 -80.2446136474609375
34.8832321166992188 -16.4890022277832031 -80.3663406372070312
34.7873420715332031 -15.4552841186523438 -80.425323486328125
34.7071685791015625 -14.425684928894043 -80.4299087524414062
34.6787338256835938 -13.8362970352172852 -80.423980712890625
34.6236839294433594 -13.6680727005004883 -80.4287338256835938
34.6822967529296875 -12.3382081985473633 -80.436004638671875
34.6940193176269531 -11.7319564819335938 -80.456787109375
34.6091270446777344 -11.3994102478027344 -80.3923568725585938
34.6866989135742188 -10.7496328353881836 -80.33355712890625
34.89947509765625 -10.1480951309204102 -80.3542251586914062
35.08050537109375 -9.03411674499511719 -80.4821014404296875
34.8848724365234375 -8.95572948455810547 -80.3194503784179688
34.6817512512207031 -7.85112524032592773 -80.420135498046875
34.6664657592773438 -7.30129337310791016 -80.4139862060546875
34.7449150085449219 -6.72515583038330078 -80.4237060546875
34.9394454956054688 -6.17460489273071289 -80.4166336059570312
35.161407470703125 -5.5436100959777832 -80.4359664916992188
35.2748641967773438 -4.98922061920166016 -80.4325485229492188
35.2453498840332031 -4.38146066665649414 -80.4522018432617188
35.0815544128417969 -3.76141119003295898 -80.4849319458007812
35.0016555786132812 -2.81482601165771484 -80.4157562255859375
34.870269775390625 -2.44460272789001465 -80.4243545532226562
35.0396232604980469 -1.70360541343688965 -80.3974075317382812
35.0914802551269531 -1.23024976253509521 -80.42047119140625
35.298309326171875 -0.689075767993927002 -80.4336471557617188
35.0974159240722656 0.0370571501553058624 -80.4440155029296875
35.0529975891113281 0.676173627376556396 -80.3650588989257812
35.1157417297363281 1.2245783805847168 -80.439178466796875
35.2535362243652344 1.69571006298065186 -80.45782470703125
35.1450729370117188 2.48115110397338867 -80.3102188110351562
35.2341156005859375 3.13598132133483887 -80.4182586669921875
35.4124374389648438 3.56703805923461914 -80.3811874389648438
35.32342529296875 4.34876775741577148 -80.4459609985351562
35.2525672912597656 4.92899608612060547 -80.4304885864257812
35.1640396118164062 5.57681465148925781 -80.4275436401367188
34.9966545104980469 6.25953435897827148 -80.3935470581054688
34.9903373718261719 6.70037984848022461 -80.4689712524414062
34.9050445556640625 7.27709674835205078 -80.4974899291992188
34.9412040710449219 8.28368949890136719 -80.4324722290039062
35.0425834655761719 8.93090152740478516 -80.4085159301757812
35.2156486511230469 9.05631732940673828 -80.5175399780273438
34.74090576171875 10.1037530899047852 -80.4235153198242188
34.78094482421875 10.5405340194702148 -80.4134674072265625
34.7661666870117188 11.4707794189453125 -80.4108200073242188
34.8870048522949219 11.6430082321166992 -80.409210205078125
34.9288787841796875 13.0484428405761719 -80.3937149047851562
35.0043067932128906 13.6244821548461914 -80.3823928833007812
34.9262237548828125 14.226776123046875 -80.3981552124023438
34.9685134887695312 14.5183267593383789 -80.4766464233398438
34.6687507629394531 15.7457771301269531 -80.438812255859375
34.7147560119628906 16.07379150390625 -80.42254638671875
34.6301040649414062 16.6841621398925781 -80.39874267578125
34.681549072265625 17.7124290466308594 -80.4058761596679688
34.7033653259277344 18.28424072265625 -80.44610595703125
35.0655593872070312 19.9052314758300781 -80.3338394165039062
35.0911941528320312 19.9271106719970703 -80.4761962890625
34.9666748046875 -19.9391632080078125 -81.3228988647460938
34.4224052429199219 -19.4909400939941406 -81.3133163452148438
34.51300048828125 -18.7851295471191406 -81.1581497192382812
34.7776107788085938 -17.2914047241210938 -81.39447021484375
34.7173385620117188 -17.0825767517089844 -81.2623672485351562
34.8099327087402344 -16.0660858154296875 -81.3080520629882812
34.7941551208496094 -15.4531650543212891 -81.300567626953125
34.7943954467773438 -14.4153461456298828 -81.3048095703125
34.6267242431640625 -14.2784576416015625 -81.2859344482421875
34.6084136962890625 -13.2572431564331055 -81.3000106811523438
34.5381317138671875 -12.3152151107788086 -81.3198318481445312
34.4519081115722656 -12.0397939682006836 -81.27337646484375
34.5070228576660156 -11.1422128677368164 -81.31671142578125
34.7213401794433594 -10.5556621551513672 -81.3126678466796875
34.9084854125976562 -9.94219970703125 -81.3049392700195312
34.89068603515625 -9.31648731231689453 -81.3060073852539062
34.7867240905761719 -8.95362377166748047 -81.1619873046875
34.6921920776367188 -7.88945865631103516 -81.2855911254882812
34.6896476745605469 -7.29192781448364258 -81.2935333251953125
34.7613906860351562 -6.72212505340576172 -81.3028793334960938
34.8605003356933594 -6.17198514938354492 -81.2826614379882812
35.0910186767578125 -5.53436422348022461 -81.281585693359375
35.2135124206542969 -4.90320634841918945 -81.3040695190429688
35.1730918884277344 -4.35941648483276367 -81.3089141845703125
35.1246299743652344 -3.64007472991943359 -81.2966232299804688
35.0333290100097656 -2.76743102073669434 -81.3424224853515625
34.8613433837890625 -2.46756601333618164 -81.3646469116210938
34.9149322509765625 -1.82744026184082031 -81.3437271118164062
35.0887565612792969 -1.25354409217834473 -81.260833740234375
35.158447265625 -0.61945652961730957 -81.3111114501953125
34.9992179870605469 -0.0324673280119895935 -81.144195556640625
35.0479049682617188 0.640105247497558594 -81.4444961547851562
34.8951568603515625 1.22346353530883789 -81.2868881225585938
34.9332809448242188 1.93243396282196045 -81.093292236328125
35.0761489868164062 2.56622123718261719 -81.122589111328125
35.286407470703125 3.19190669059753418 -81.232635498046875
35.3087959289550781 3.8083198070526123 -81.2606658935546875
35.3681755065917969 4.27209377288818359 -81.3233566284179688
35.256134033203125 4.97369670867919922 -81.3660659790039062
35.1247673034667969 5.57652711868286133 -81.3430633544921875
34.8437614440917969 6.25887918472290039 -81.26416015625
34.9191207885742188 6.71339845657348633 -81.3485260009765625
34.8032569885253906 7.49757909774780273 -81.2628173828125
34.9585800170898438 7.85526275634765625 -81.36968994140625
34.9708404541015625 8.70839786529541016 -81.3074493408203125
35.0684471130371094 9.03874301910400391 -81.3842544555664062
34.7534561157226562 10.1401233673095703 -81.2723541259765625
34.8425521850585938 10.5369186401367188 -81.3299484252929688
34.8314743041992188 11.4525814056396484 -81.2934112548828125
34.9557037353515625 11.6214046478271484 -81.3301010131835938
34.8909111022949219 12.9753026962280273 -81.2388687133789062
34.9713401794433594 13.2540254592895508 -81.34661865234375
34.8130416870117188 14.2361879348754883 -81.263336181640625
34.8398857116699219 14.840886116027832 -81.2972259521484375
34.8201217651367188 15.4631834030151367 -81.3104019165039062
34.7484703063964844 16.4680938720703125 -81.2928848266601562
34.7757530212402344 16.6591682434082031 -81.281097412109375
34.6669464111328125 17.2840919494628906 -81.2717742919921875
34.5584182739257812 18.3093585968017578 -81.322052001953125
34.6377525329589844 18.8958301544189453 -81.3916854858398438
34.9027481079101562 19.9262409210205078 -81.3597183227539062
34.614715576171875 -19.2481155395507812 -82.0183258056640625
34.7222366333007812 -19.4395980834960938 -82.093231201171875
34.4002609252929688 -18.3086910247802734 -82.0834274291992188
34.5207481384277344 -17.3186321258544922 -82.174560546875
34.6376533508300781 -16.6860923767089844 -82.1477508544921875
34.5684967041015625 -16.4713058471679688 -82.0042724609375
34.6443099975585938 -15.8690109252929688 -82.0166473388671875
34.7920303344726562 -14.8411617279052734 -82.09259033203125
34.7099761962890625 -14.2623815536499023 -82.1241378784179688
34.6487960815429688 -13.6740407943725586 -82.152984619140625
34.5406150817871094 -12.3010110855102539 -82.0422515869140625
34.4497261047363281 -11.7320489883422852 -82.0665435791015625
34.5076866149902344 -11.1549081802368164 -82.0627975463867188
34.6445846557617188 -10.5520563125610352 -82.066436767578125
34.7932701110839844 -9.9349517822265625 -82.0659561157226562
34.75128173828125 -9.57975864410400391 -82.1582260131835938
34.8029060363769531 -8.71051216125488281 -82.0926589965820312
34.8328666687011719 -8.09541702270507812 -82.0948715209960938
34.8430709838867188 -7.47340059280395508 -82.1053543090820312
34.8868751525878906 -6.8471522331237793 -82.0842742919921875
34.9857902526855469 -6.19117641448974609 -82.0902328491210938
35.1543426513671875 -5.56114292144775391 -82.0960159301757812
35.1666221618652344 -4.91243410110473633 -82.08319091796875
35.1479568481445312 -4.24592399597167969 -82.0883026123046875
35.0795783996582031 -3.6383817195892334 -82.09686279296875
35.0505943298339844 -3.03903579711914062 -82.0876617431640625
34.9139480590820312 -2.48177218437194824 -82.0812606811523438
35.1390342712402344 -1.7040787935256958 -81.9773101806640625
35.0260810852050781 -1.2196582555770874 -82.0792160034179688
34.9368209838867188 -0.613007724285125732 -82.0801315307617188
34.8109626770019531 -0.21821238100528717 -81.9593887329101562
34.8282318115234375 0.622782230377197266 -82.1639328002929688
34.7350692749023438 1.15119624137878418 -82.1566619873046875
34.710662841796875 1.84346580505371094 -82.048187255859375
34.8486289978027344 2.10093283653259277 -82.2079696655273438
35.1524734497070312 2.99418973922729492 -82.1209793090820312
35.1863365173339844 3.61576175689697266 -82.1370010375976562
35.0790443420410156 4.29560136795043945 -82.1340713500976562
34.9825325012207031 4.91070222854614258 -82.02581787109375
35.014007568359375 5.53824281692504883 -82.11322021484375
34.7922210693359375 6.23381471633911133 -82.0495834350585938
34.7799148559570312 6.86062765121459961 -82.0370025634765625
34.8841667175292969 7.30959987640380859 -82.1031494140625
34.8413925170898438 8.10850715637207031 -82.0492401123046875
34.8004989624023438 8.93135547637939453 -81.9278411865234375
34.8500480651855469 9.31904220581054688 -82.0907211303710938
34.8284683227539062 9.93953990936279297 -82.103363037109375
34.8174972534179688 10.5434284210205078 -82.1049041748046875
34.8266220092773438 11.4548454284667969 -82.061859130859375
34.8548774719238281 12.0559797286987305 -82.0680084228515625
34.8689155578613281 12.6500139236450195 -82.0825042724609375
34.8118972778320312 13.2499256134033203 -82.082427978515625
34.8166885375976562 13.8390226364135742 -82.080902099609375
34.8224220275878906 15.1113872528076172 -81.9987945556640625
34.9490737915039062 15.1206912994384766 -82.0588531494140625
34.7832374572753906 16.4505290985107422 -82.026611328125
34.6411361694335938 17.0530605316162109 -82.022857666015625
34.6320266723632812 17.3293819427490234 -82.1325149536132812
34.4221839904785156 18.7413063049316406 -81.9374771118164062
34.5753326416015625 19.4281158447265625 -82.0039291381835938
34.676513671875 19.9929733276367188 -82.0777664184570312
35.1097335815429688 -19.7485427856445312 -82.83489990234375
34.5332565307617188 -18.8461112976074219 -82.815399169921875
34.5400619506835938 -18.8785572052001953 -82.885406494140625
34.4474601745605469 -17.2805900573730469 -82.8854904174804688
34.527923583984375 -16.6705818176269531 -82.8744354248046875
34.6135406494140625 -16.0708541870117188 -82.8606109619140625
34.8742103576660156 -15.1873054504394531 -82.8259048461914062
34.8187751770019531 -14.8322601318359375 -82.8588790893554688
34.8124542236328125 -13.8426599502563477 -82.8191909790039062
34.7258796691894531 -13.2427577972412109 -82.8370819091796875
34.6627273559570312 -12.6617927551269531 -82.8690414428710938
34.5224609375 -12.0670185089111328 -82.9005889892578125
34.5592575073242188 -11.3923406600952148 -82.9128265380859375
34.6878662109375 -10.5581493377685547 -82.8293838500976562
34.8578910827636719 -9.93473148345947266 -82.8565597534179688
34.8653526306152344 -9.31661510467529297 -82.8520431518554688
34.8256263732910156 -8.70703601837158203 -82.8712539672851562
34.9356422424316406 -7.87688064575195312 -82.821044921875
34.9321937561035156 -7.27380561828613281 -82.8707275390625
34.8555679321289062 -6.85665464401245117 -82.87896728515625
35.00738525390625 -6.17927742004394531 -82.8576507568359375
35.1284103393554688 -5.56704092025756836 -82.8902511596679688
35.0458755493164062 -4.91165637969970703 -82.8243637084960938
34.98394775390625 -4.39943075180053711 -82.8057861328125
34.9486656188964844 -3.77060914039611816 -82.8260421752929688
35.0570907592773438 -3.05283284187316895 -82.8560562133789062
35.1507987976074219 -2.31751918792724609 -82.920501708984375
35.1065177917480469 -1.83551120758056641 -82.85723876953125
34.9288444519042969 -1.23678600788116455 -82.9427566528320312
35.0571556091308594 -0.483130842447280884 -82.890533447265625
34.9275321960449219 0.137669682502746582 -82.8748550415039062
34.6718292236328125 0.587564826011657715 -82.8637466430664062
34.6142158508300781 1.20236444473266602 -82.927734375
34.605743408203125 1.86276447772979736 -82.8280563354492188
34.8026046752929688 2.21323204040527344 -82.9204177856445312
34.9773292541503906 3.04059791564941406 -82.872161865234375
34.9198837280273438 3.73061609268188477 -82.8192520141601562
34.9587593078613281 4.38114786148071289 -82.7990036010742188
35.0163993835449219 4.88894557952880859 -82.885223388671875
34.85565185546875 5.5586390495300293 -82.80694580078125
34.8983650207519531 6.12184429168701172 -82.8926925659179688
34.9087486267089844 6.71336698532104492 -82.9046096801757812
34.8971023559570312 7.31100988388061523 -82.901123046875
34.719482421875 8.28695297241210938 -82.717681884765625
34.6878814697265625 8.92848968505859375 -82.7383346557617188
34.8838729858398438 9.07296180725097656 -82.9158859252929688
34.7318344116210938 9.92539310455322266 -82.864776611328125
34.6320381164550781 10.8162555694580078 -82.8896255493164062
34.6701774597167969 11.4459409713745117 -82.8679428100585938
34.7687034606933594 12.054901123046875 -82.8624114990234375
34.7567558288574219 12.655543327331543 -82.8641891479492188
34.7576484680175781 13.2480745315551758 -82.8626327514648438
34.6660842895507812 14.2571277618408203 -82.8294830322265625
34.781402587890625 14.4651470184326172 -82.8853073120117188
34.8574142456054688 15.7776622772216797 -82.8933944702148438
34.8091049194335938 16.42950439453125 -82.8693695068359375
34.674652099609375 17.0558834075927734 -82.8688278198242188
34.6920585632324219 17.3114986419677734 -82.875274658203125
34.42578125 18.3084373474121094 -82.8642501831054688
34.3678016662597656 18.9288616180419922 -82.8709335327148438
34.5850906372070312 20.0084018707275391 -82.8587570190429688
34.739471435546875 -19.172271728515625 -83.6393203735351562
34.6630897521972656 -19.6026420593261719 -83.6227569580078125
34.5363426208496094 -18.3031826019287109 -83.6378250122070312
34.5074691772460938 -17.2868366241455078 -83.6066665649414062
34.5505561828613281 -16.6771297454833984 -83.6153106689453125
34.5102462768554688 -16.4553146362304688 -83.7476654052734375
34.5475273132324219 -15.7702465057373047 -83.7321701049804688
34.7874107360839844 -14.8345146179199219 -83.6491928100585938
34.8247756958007812 -13.8622465133666992 -83.5982437133789062
34.8350677490234375 -13.2476539611816406 -83.619781494140625
34.7433280944824219 -13.0187902450561523 -83.7454605102539062
34.751617431640625 -11.725794792175293 -83.5644760131835938
34.7156791687011719 -11.4055452346801758 -83.7272491455078125
34.9260025024414062 -10.5508308410644531 -83.6021652221679688
34.9979629516601562 -9.93937778472900391 -83.6152191162109375
34.9835090637207031 -9.31966781616210938 -83.633819580078125
34.9085235595703125 -8.70941162109375 -83.644317626953125
34.8783226013183594 -8.10652828216552734 -83.6440505981445312
34.8645172119140625 -7.28629064559936523 -83.6566238403320312
34.786865234375 -6.83368444442749023 -83.6537704467773438
34.8841819763183594 -6.21889925003051758 -83.6445236206054688
35.0922203063964844 -5.52349281311035156 -83.6656112670898438
35.1721382141113281 -4.89662790298461914 -83.6725921630859375
35.1549339294433594 -4.2444915771484375 -83.6659011840820312
35.1038131713867188 -3.66091346740722656 -83.6515121459960938
35.0045700073242188 -3.07053947448730469 -83.6106719970703125
34.9619102478027344 -2.50618743896484375 -83.582275390625
35.1220245361328125 -1.66451919078826904 -83.7123947143554688
35.0329170227050781 -1.22155869007110596 -83.651885986328125
35.02691650390625 -0.60814666748046875 -83.6446075439453125
34.9389839172363281 -0.00915398448705673218 -83.6479949951171875
34.7790412902832031 0.454390108585357666 -83.8318862915039062
34.7973823547363281 1.15039455890655518 -83.536956787109375
34.6637306213378906 1.68391501903533936 -83.5076370239257812
34.7781295776367188 2.45242571830749512 -83.65411376953125
34.8151397705078125 3.20809340476989746 -83.6646270751953125
35.0814132690429688 3.64218497276306152 -83.641998291015625
35.0898551940917969 4.26656675338745117 -83.6389694213867188
35.0390968322753906 4.89601278305053711 -83.6469802856445312
34.9634208679199219 5.54330110549926758 -83.6477813720703125
34.8550567626953125 6.11216878890991211 -83.6621780395507812
34.7339859008789062 6.85197019577026367 -83.6028213500976562
34.741119384765625 7.45965194702148438 -83.6040496826171875
34.806854248046875 7.90148544311523438 -83.6839828491210938
34.7512550354003906 8.71511936187744141 -83.6336593627929688
34.8469314575195312 9.02944755554199219 -83.6429977416992188
34.7140769958496094 9.92110443115234375 -83.6433639526367188
34.6655235290527344 10.5230579376220703 -83.6281585693359375
34.7074623107910156 11.1065120697021484 -83.6290206909179688
34.8120231628417969 11.6785135269165039 -83.5683822631835938
34.7224922180175781 13.0350208282470703 -83.6520309448242188
34.7849884033203125 13.2522058486938477 -83.6239089965820312
34.7393379211425781 13.8419723510742188 -83.61151123046875
34.8197212219238281 14.4518709182739258 -83.6113662719726562
34.8642158508300781 15.4629878997802734 -83.6261138916015625
34.7709999084472656 16.4222545623779297 -83.6987533569335938
34.7393379211425781 16.742431640625 -83.5885086059570312
34.4545707702636719 17.6573944091796875 -83.6528472900390625
34.365081787109375 18.3014869689941406 -83.6365814208984375
34.3334236145019531 18.9167537689208984 -83.6236114501953125
34.3570137023925781 19.4679679870605469 -83.6260147094726562
34.9440269470214844 -19.3999366760253906 -84.417755126953125
34.7629737854003906 -18.8087215423583984 -84.4817352294921875
34.6961669921875 -17.2976303100585938 -84.33917236328125
34.5789604187011719 -17.5351905822753906 -84.501922607421875
34.6975517272949219 -16.0710430145263672 -84.398468017578125
34.8308372497558594 -15.1822414398193359 -84.4032440185546875
34.7490577697753906 -14.8397626876831055 -84.410003662109375
34.8166122436523438 -14.2233066558837891 -84.3951263427734375
34.8389015197753906 -13.5954046249389648 -84.3716201782226562
34.9801406860351562 -12.290802001953125 -84.410186767578125
34.88323974609375 -12.0463781356811523 -84.4217605590820312
34.9420356750488281 -11.4183931350708008 -84.42767333984375
34.9319915771484375 -10.7925920486450195 -84.4363861083984375
35.0576438903808594 -10.1591272354125977 -84.4309310913085938
35.0878715515136719 -9.58559322357177734 -84.4664154052734375
34.9416275024414062 -8.98622894287109375 -84.4670639038085938
34.8142242431640625 -7.8333888053894043 -84.4720993041992188
34.7594947814941406 -7.27458667755126953 -84.4567642211914062
34.7972526550292969 -6.70571660995483398 -84.4495010375976562
34.8214607238769531 -6.20761346817016602 -84.391082763671875
35.0222396850585938 -5.52295541763305664 -84.4377059936523438
35.043060302734375 -4.97460556030273438 -84.4023284912109375
35.0341911315917969 -4.35855245590209961 -84.4090499877929688
35.0731887817382812 -3.65025973320007324 -84.4372406005859375
35.0826911926269531 -2.78085970878601074 -84.4974441528320312
34.9604454040527344 -2.43921637535095215 -84.42596435546875
34.9219017028808594 -1.87839591503143311 -84.3115615844726562
34.936431884765625 -1.13067078590393066 -84.3393936157226562
35.042816162109375 -0.488641142845153809 -84.4507598876953125
35.0507316589355469 0.00220246193930506706 -84.4194564819335938
35.020660400390625 0.613032042980194092 -84.4212799072265625
34.9115676879882812 1.21798074245452881 -84.651031494140625
34.9712905883789062 1.66809070110321045 -84.216552734375
34.9823226928710938 2.43929076194763184 -84.4118118286132812
35.0252914428710938 3.0535430908203125 -84.3983230590820312
35.0286407470703125 3.72993850708007812 -84.4907760620117188
35.1230926513671875 4.2608184814453125 -84.4077606201171875
34.9705276489257812 4.91228723526000977 -84.42572021484375
34.8430137634277344 5.47601652145385742 -84.3863372802734375
34.6559333801269531 6.17175483703613281 -84.383056640625
34.7109375 6.69512510299682617 -84.4312210083007812
34.5902671813964844 7.50544643402099609 -84.408355712890625
34.6630783081054688 7.85778522491455078 -84.4202728271484375
34.7280464172363281 8.71382522583007812 -84.433990478515625
34.7514457702636719 9.31769180297851562 -84.4254150390625
34.6984596252441406 9.92035675048828125 -84.424713134765625
34.7486915588378906 10.4964456558227539 -84.4053573608398438
34.738861083984375 11.0886802673339844 -84.3742141723632812
34.9140052795410156 12.407048225402832 -84.536712646484375
34.9496612548828125 12.2800121307373047 -84.379638671875
34.8716392517089844 13.647181510925293 -84.487213134765625
34.9093818664550781 14.2384872436523438 -84.4560470581054688
34.8998947143554688 14.847325325012207 -84.429656982421875
34.9515151977539062 15.4651556015014648 -84.4189605712890625
34.9475173950195312 16.0864143371582031 -84.4062271118164062
34.7252693176269531 17.0423297882080078 -84.43865966796875
34.6601409912109375 17.4116420745849609 -84.3577194213867188
34.4018058776855469 18.3067264556884766 -84.426116943359375
34.3941650390625 19.4259586334228516 -84.4489364624023438
34.4283523559570312 19.4114627838134766 -84.4018325805664062
34.8365249633789062 -20.0081138610839844 -85.2178268432617188
34.8142852783203125 -18.8172016143798828 -85.1987228393554688
34.7590103149414062 -18.2941741943359375 -85.1935501098632812
34.7124061584472656 -18.1464977264404297 -85.205169677734375
34.8649635314941406 -16.6842899322509766 -85.1501388549804688
34.8411102294921875 -16.0753135681152344 -85.1732406616210938
34.8104400634765625 -15.4538049697875977 -85.1961212158203125
34.8032112121582031 -14.8529653549194336 -85.2173538208007812
34.9254302978515625 -13.8374462127685547 -85.2062149047851562
34.8509368896484375 -13.6283321380615234 -85.1729812622070312
34.8446769714355469 -12.6559810638427734 -85.2122573852539062
34.7823410034179688 -12.0467615127563477 -85.1857147216796875
34.8837890625 -11.1421451568603516 -85.267242431640625
34.9029884338378906 -10.7809114456176758 -85.1780166625976562
35.1844253540039062 -9.95536041259765625 -85.2050704956054688
35.1645889282226562 -9.57827663421630859 -85.2234115600585938
35.004425048828125 -8.34090328216552734 -85.2003555297851562
34.8527488708496094 -8.45641040802001953 -85.2017364501953125
34.6743431091308594 -7.51485347747802734 -85.1945343017578125
34.7816963195800781 -6.71279239654541016 -85.23101806640625
34.8977394104003906 -6.13815879821777344 -85.2220535278320312
34.9674720764160156 -5.51077365875244141 -85.2139968872070312
34.9646759033203125 -4.95166301727294922 -85.1517105102539062
35.014495849609375 -4.26903390884399414 -85.24078369140625
34.8706283569335938 -3.76427602767944336 -85.0912017822265625
34.8713912963867188 -3.05004405975341797 -85.204437255859375
34.8313636779785156 -2.29945707321166992 -85.3211898803710938
34.7378196716308594 -1.8001706600189209 -85.0438690185546875
34.9761199951171875 -1.1221233606338501 -85.2716217041015625
35.1166725158691406 -0.711558043956756592 -85.1610946655273438
35.0598831176757812 -0.080221518874168396 -85.18634033203125
35.1012344360351562 0.618543744087219238 -85.1878738403320312
35.0710945129394531 1.34061455726623535 -85.2655487060546875
35.2185478210449219 1.57775390148162842 -85.0692596435546875
35.1612510681152344 2.49136900901794434 -85.285675048828125
35.2917137145996094 2.9585263729095459 -85.0582504272460938
35.0476951599121094 3.68595337867736816 -85.2567138671875
35.0944480895996094 4.30510377883911133 -85.194549560546875
34.9327163696289062 4.89827632904052734 -85.1513214111328125
34.8668441772460938 5.52279853820800781 -85.20184326171875
34.7328529357910156 6.12186384201049805 -85.1958236694335938
34.6933555603027344 6.67962074279785156 -85.1872482299804688
34.6724052429199219 7.27593755722045898 -85.1519088745117188
34.7267532348632812 7.85365724563598633 -85.1190261840820312
34.782958984375 8.93782711029052734 -85.3176803588867188
34.8548469543457031 9.31775093078613281 -85.1904296875
34.7810630798339844 10.2295742034912109 -85.3280563354492188
34.8130264282226562 10.8856945037841797 -85.2724609375
34.8586158752441406 11.4464139938354492 -85.224151611328125
35.0458602905273438 12.3989944458007812 -85.267974853515625
35.1118011474609375 12.6421241760253906 -85.1748275756835938
35.1586151123046875 13.2301464080810547 -85.1600799560546875
34.9704132080078125 14.2345762252807617 -85.2107696533203125
34.9748725891113281 14.8476362228393555 -85.1972808837890625
34.9170646667480469 15.8424654006958008 -85.260650634765625
34.9079475402832031 16.446319580078125 -85.2499465942382812
34.9186439514160156 16.7452907562255859 -85.1499557495117188
34.6984291076660156 17.6964664459228516 -85.20306396484375
34.4995002746582031 18.3198375701904297 -85.183013916015625
34.5137977600097656 18.9238185882568359 -85.1286544799804688
34.7185745239257812 19.9963474273681641 -85.1846237182617188
34.7567634582519531 -19.9966239929199219 -85.9832611083984375
34.6542510986328125 -18.9424591064453125 -85.968505859375
34.7839736938476562 -18.3077316284179688 -85.9731903076171875
34.7707099914550781 -17.7067890167236328 -85.9757919311523438
34.7570419311523438 -17.4314804077148438 -85.9654922485351562
34.8494071960449219 -16.4620952606201172 -85.9841232299804688
34.7766571044921875 -15.4553985595703125 -85.98162841796875
34.763885498046875 -14.8672714233398438 -85.9681777954101562
34.829864501953125 -14.255401611328125 -85.9483871459960938
34.8001708984375 -13.2432498931884766 -86.0060882568359375
34.67413330078125 -13.0240755081176758 -85.8657913208007812
34.5407600402832031 -11.7718629837036133 -86.0227432250976562
34.5587882995605469 -11.3570566177368164 -85.921295166015625
34.8455657958984375 -10.5932893753051758 -85.9925308227539062
34.9552116394042969 -10.1319990158081055 -85.9512939453125
35.1370811462402344 -9.29982566833496094 -85.99737548828125
34.9627151489257812 -8.31415081024169922 -86.045867919921875
34.7383041381835938 -8.14249229431152344 -85.9760055541992188
34.6600837707519531 -7.25619888305664062 -86.0087814331054688
34.6381301879882812 -6.87045764923095703 -85.9171600341796875
34.8760910034179688 -6.14013004302978516 -86.0003509521484375
34.8858413696289062 -5.59562158584594727 -85.9594573974609375
35.0701446533203125 -4.86492824554443359 -85.9856491088867188
35.0483741760253906 -4.25164699554443359 -85.9907455444335938
34.8897438049316406 -3.65548276901245117 -85.9879226684570312
34.7713127136230469 -3.06265830993652344 -85.9799118041992188
34.6402168273925781 -2.29920434951782227 -86.019287109375
34.5600662231445312 -1.82727229595184326 -86.0261688232421875
34.6923065185546875 -1.18544960021972656 -85.961090087890625
34.9856910705566406 -0.671282708644866943 -86.0189971923828125
35.0440788269042969 -0.00467528169974684715 -85.9896926879882812
35.15093994140625 0.605514168739318848 -85.9905471801757812
35.0850906372070312 1.29237854480743408 -85.9705047607421875
35.1976203918457031 1.87390053272247314 -85.9187469482421875
35.3586769104003906 2.43204975128173828 -85.9860687255859375
35.2651939392089844 3.11495399475097656 -85.9744415283203125
35.1732025146484375 3.66740274429321289 -85.974456787109375
35.1350479125976562 4.33390998840332031 -85.9824447631835938
35.0006790161132812 4.93797540664672852 -85.9820938110351562
34.8679847717285156 5.51235198974609375 -85.9905853271484375
34.6494178771972656 6.1902313232421875 -85.94537353515625
34.6859512329101562 6.6777348518371582 -85.9950027465820312
34.718170166015625 7.253326416015625 -85.9939117431640625
34.855499267578125 8.11472225189208984 -85.98590087890625
35.0188674926757812 8.35874271392822266 -85.9248199462890625
35.0231094360351562 9.62711238861083984 -86.093231201171875
35.0584526062011719 9.90253162384033203 -85.913482666015625
35.0258140563964844 10.5238571166992188 -85.8902740478515625
35.0509376525878906 11.1338815689086914 -85.9015884399414062
35.0945167541503906 12.0399627685546875 -85.978973388671875
35.0891914367675781 12.9948368072509766 -85.9833831787109375
35.0242500305175781 13.6349515914916992 -86.0083694458007812
35.0838508605957031 13.8762321472167969 -85.9661636352539062
34.9873619079589844 14.8479719161987305 -85.9850082397460938
35.0102806091308594 15.845576286315918 -86.0391006469726562
35.038848876953125 16.46624755859375 -86.0225830078125
